ncols         558
nrows         28
xllcorner     519000.000122
yllcorner     9246080.00012
cellsize      20
nodata_value -999
-999 -999 -999 -999 -999 -999 -999 -999 -999 -999 -999 -999 -999 -999 -999 -999 -999 -999 -999 -999 -999 -999 -999 -999 -999 -999 -999 -999 -999 -999 -999 -999 -999 -999 -999 -999 -999 -999 -999 -999 -999 -999 -999 -999 -999 -999 -999 -999 -999 -999 -999 -999 -999 -999 -999 -999 -999 -999 -999 -999 -999 -999 -999 -999 -999 -999 -999 -999 -999 -999 -999 -999 -999 -999 -999 -999 -999 -999 -999 -999 -999 -999 -999 -999 -999 -999 -999 -999 -999 -999 -999 -999 -999 -999 -999 -999 -999 -999 -999 -999 -999 -999 -999 -999 -999 -999 -999 -999 -999 -999 -999 -999 -999 -999 -999 -999 -999 -999 -999 -999 -999 -999 -999 -999 -999 -999 -999 -999 -999 -999 -999 -999 -999 -999 -999 -999 -999 -999 -999 -999 -999 -999 -999 -999 -999 -999 -999 -999 -999 -999 -999 -999 -999 -999 -999 -999 -999 -999 -999 -999 -999 -999 -999 -999 -999 -999 -999 -999 -999 -999 -999 -999 -999 -999 -999 -999 -999 -999 -999 -999 -999 -999 -999 -999 -999 -999 -999 -999 -999 -999 -999 -999 -999 -999 -999 -999 -999 -999 -999 -999 -999 -999 -999 -999 35.315 32.742 30.789 31.077 30.904 30.7 30.485 30.973 31.071 33.198 35.744 35.635 35.678 34.419 33.563 34.433 33.909 31.103 30.875 32.028 34.774 -999 -999 -999 -999 -999 -999 -999 -999 -999 -999 -999 -999 -999 -999 -999 -999 -999 -999 -999 -999 -999 -999 -999 -999 -999 -999 -999 32.557 32.437 32.327 32.448 31.91 31.652 31.941 32.743 32.746 32.441 31.787 30.173 28.727 28.953 29.187 29.205 28.361 28.672 28.248 27.789 27.068 27.017 26.881 26.917 26.911 26.991 27.05 27.097 27.118 27.106 27.086 26.956 26.917 26.845 26.742 26.646 26.376 26.008 25.549 24.751 19.804 23.425 23.819 23.668 24.993 27.846 28.99 29.706 29.602 29.436 29.175 28.683 27.65 26.91 26.171 25.704 25.67 27.042 27.76 27.762 27.865 27.605 27.506 27.242 27.243 26.729 26.065 24.953 24.221 23.256 22.157 21.165 20.848 22.2 25.02 26.115 26.38 -999 -999 -999 -999 -999 -999 -999 -999 -999 -999 -999 -999 -999 -999 -999 -999 -999 -999 -999 27.924 28.043 28.034 28.068 27.885 26.592 26.86 26.642 26.317 25.998 25.479 25.216 24.554 22.129 18.561 16.908 16.596 16.656 16.575 16.6 16.275 15.866 18.681 16.484 15.636 15.397 15.807 15.114 15.567 16.387 17.275 15.001 14.123 13.965 15.697 15.497 13.745 12.956 12.957 12.989 12.922 12.52 12.362 12.286 12.134 11.925 11.997 11.652 11.575 11.66 11.797 11.656 11.554 11.441 10.95 10.905 10.172 10.61 10.856 10.622 8.913 10.905 10.93 10.672 10.494 10.488 10.271 10.069 10.001 9.776999 9.613999 9.445 9.321 9.138 8.985 8.944 8.854 8.92 8.787 8.505 8.421 8.580999 8.335 8.675 8.995999 9.184 9.993999 12.33 14.725 15.443 14.271 13.266 12.58 12.343 10.782 9.505 8.868999 9.346 9.228 9.48 9.481 9.795 10.798 10.688 11.108 11.349 13.924 12.234 7.95 9.705 9.171 6.981999 6.771999 6.651999 7.106999 7.86 11.579 12.971 12.635 13.562 12.698 10.758 9.601 11.49 13.814 13.385 10.43 6.934 5.971 5.973 5.775 5.875 6.015 6.446 6.292 5.83 5.558 5.557 5.397 4.694 3.892 2.842 3.139 4.272 4.923 4.981 5.757 6.11 6.439 4.993 5.113 5.5 2.152 1.992 6.024 6.388 6.528 6.106 5.685 5.546 5.099 4.649 4.411 4.322 4.547 4.61 4.794 4.764 4.471 3.933 3.309 3.559 5.132 2.433 4.884 4.737 4.229 2.912 2.551 2.457 2.151 2.079 2.042 2.01 2.063 2.039 1.941 2.833 1.982 2.309 2.39 2.345 2.41 2.238 2.259 2.296 2.394 2.41 4.6 7.518 7.862 8.438 8.761 9.157 -999 -999 -999 -999 -999 -999
-999 -999 -999 -999 -999 -999 -999 -999 -999 -999 -999 -999 -999 -999 -999 -999 -999 -999 -999 -999 -999 -999 -999 -999 -999 -999 -999 -999 -999 -999 -999 -999 -999 -999 -999 -999 -999 -999 -999 -999 -999 -999 -999 -999 -999 -999 -999 -999 -999 -999 -999 -999 -999 -999 -999 -999 -999 -999 -999 -999 -999 -999 -999 -999 -999 -999 -999 -999 -999 -999 -999 -999 -999 -999 -999 -999 -999 -999 -999 -999 -999 -999 -999 -999 -999 -999 -999 -999 -999 -999 -999 -999 -999 -999 -999 -999 -999 -999 -999 -999 -999 -999 -999 -999 -999 -999 -999 -999 -999 -999 -999 -999 -999 -999 -999 -999 -999 -999 -999 -999 -999 -999 -999 -999 -999 -999 -999 -999 -999 -999 -999 -999 -999 -999 -999 -999 -999 -999 -999 -999 -999 -999 -999 -999 -999 -999 -999 -999 -999 -999 -999 -999 -999 -999 -999 -999 -999 -999 -999 -999 -999 -999 -999 -999 -999 -999 -999 -999 -999 -999 -999 -999 -999 -999 -999 -999 -999 -999 -999 -999 -999 -999 -999 -999 -999 -999 -999 -999 -999 -999 -999 -999 -999 -999 -999 -999 -999 -999 -999 -999 -999 -999 -999 39.195 38.419 37.072 33.187 31.758 30.797 30.609 30.558 30.005 31.126 31.168 32.805 33.649 33.214 33.928 32.317 31.633 30.722 30.223 30.615 31.377 33.593 35.343 36.976 -999 -999 -999 -999 -999 -999 -999 -999 -999 -999 -999 -999 -999 -999 -999 -999 -999 -999 -999 -999 -999 -999 -999 -999 29.177 28.399 27.77 28.046 28.137 28.426 28.359 28.842 29.959 30.965 31.164 31.213 30.163 28.913 28.832 28.698 28.803 28.837 28.455 27.911 27.706 27.273 27.065 26.932 26.903 26.915 26.889 26.97 26.967 27.003 27.006 26.948 26.837 26.775 26.676 26.562 26.428 26.239 25.925 25.426 24.372 19.853 22.579 23.019 23.287 24.175 26.289 27.917 29.438 29.463 29.46 29.077 28.865 28.744 28.01 26.13 25.052 24.981 25.396 26.801 27.593 27.442 27.485 27.085 26.671 26.371 26.407 26.058 25.471 25.372 24.8 23.81 22.142 20.287 20.484 22.727 25.002 25.909 26.318 26.196 23.369 21.761 21.805 21.681 21.309 19.542 19.13 17.668 -999 -999 -999 -999 -999 -999 -999 27.341 27.655 27.791 27.941 28.119 28.053 27.748 26.975 27.047 26.962 26.693 26.587 26.088 25.796 25.339 24.43 20.875 18.398 16.909 16.526 16.286 16.101 15.995 16.121 18.854 16.333 15.808 15.717 15.765 15.782 16.189 18.259 20.271 16.12 15.008 15.099 16.627 19.05 17.128 14.946 16.094 18.289 16.882 15.519 13.015 12.46 12.224 12.106 12.09 11.904 11.76 11.857 11.652 11.615 11.541 11.477 11.744 11.268 11.266 11.229 10.482 9.985 9.426 10.648 10.897 10.654 10.456 10.287 10.223 10.025 9.934 9.736 9.596 9.302 9.283 9.138 8.936 9.025 8.802 9.033999 8.839 8.653 8.404 8.868 9.062 9.073999 9.306 10.374 13.561 15.366 16.617 16.898 16 15.089 14.382 13.956 13.352 12.019 11.118 11.052 11.259 11.398 12.175 12.681 13.607 14.009 13.593 13.614 14.584 13.689 8.452 10.9 9.323999 7.835999 7.054999 7.2 8.087 10.164 13.485 14.261 14.717 13.944 12.594 10.419 11.103 12.832 14.684 13.478 10.641 7.679 6.271 6.027 6.107 6.526 6.426 6.368999 6.101 5.645 5.618 5.695 5.306 5.524 5.136 5.117 4.904 5.172 5.136 3.955 2.894 3 4.252 4.607 5.448 2.778 2.035 5.77 5.12 6.236 5.612 5.303 4.596 4.738 4.343 3.931 3.898 3.856 4.162 4.473 4.728 4.681 4.393 3.805 3.435 3.211 2.935 2.613 4.703 4.828 4.771 4.61 2.293 2.78 2.426 2.162 2.078 2.082 2.04 1.999 1.854 2.375 2.256 2.53 2.926 2.842 2.508 2.282 2.256 2.321 3.497 5.746 6.451 7.226 7.895 8.419 8.767 9.109 -999 -999 -999 -999 -999 -999
-999 -999 -999 -999 -999 -999 -999 -999 -999 -999 -999 -999 -999 -999 -999 -999 -999 -999 -999 -999 -999 -999 -999 -999 -999 -999 -999 -999 -999 -999 -999 -999 -999 -999 -999 -999 -999 -999 -999 -999 -999 -999 -999 -999 -999 -999 -999 -999 -999 -999 -999 -999 -999 -999 -999 -999 -999 -999 -999 -999 -999 -999 -999 -999 -999 -999 -999 -999 -999 -999 -999 -999 -999 -999 -999 -999 -999 -999 -999 -999 -999 -999 -999 -999 -999 -999 -999 -999 -999 -999 -999 -999 -999 -999 -999 -999 -999 -999 -999 -999 -999 -999 -999 -999 -999 -999 -999 -999 -999 -999 -999 -999 -999 -999 -999 -999 -999 -999 -999 -999 -999 -999 -999 -999 -999 -999 -999 -999 -999 -999 -999 -999 -999 -999 -999 -999 -999 -999 -999 -999 -999 -999 -999 -999 -999 -999 -999 -999 -999 -999 -999 -999 -999 -999 -999 -999 -999 -999 -999 -999 -999 -999 -999 -999 -999 -999 -999 -999 -999 -999 -999 -999 -999 -999 -999 -999 -999 -999 -999 -999 -999 -999 -999 -999 -999 -999 -999 -999 -999 -999 -999 -999 -999 -999 -999 -999 -999 -999 -999 -999 -999 -999 39.58 39.474 39.164 39.071 37.771 35.694 34.894 31.312 30.496 30.321 30.303 30.757 30.745 31.201 32.269 34.067 32.182 30.142 30.079 29.887 30.634 32.157 33.456 35.024 36.793 37.141 36.633 36.591 36.682 36.858 36.974 36.933 36.993 36.68 35.897 34.657 34.343 34.862 35.311 35.756 35.528 35.033 34.007 34.112 34.724 34.863 33.69 30.144 29.306 28.825 29.022 28.804 28.165 27.373 27.012 27.113 27.299 27.678 29.406 29.877 28.332 27.926 28.205 28.332 28.354 28.649 28.975 28.355 27.884 27.487 27.35 27.32 26.956 26.935 26.917 26.967 26.936 26.88 26.835 26.802 26.722 26.704 26.677 26.546 26.341 26.165 25.952 25.775 25.348 24.307 23.343 18.977 22.329 22.085 23.559 24.635 26.272 28.767 29.54 29.271 28.971 28.887 28.856 28.24 27.599 26.059 24.615 23.97 25.438 26.859 26.935 26.911 26.521 26.334 25.38 25.579 25.275 25.73 25.557 24.687 24.291 22.603 20.063 20.037 21.244 24.341 25.101 25.583 26.064 25.644 24.703 22.686 21.88 21.349 20.051 19.516 17.051 17.691 18.454 20.13 24.072 25.551 26.831 26.633 26.559 27.218 27.619 27.779 27.872 27.938 28.123 27.823 27.139 26.651 26.448 26.235 25.895 25.858 25.282 24.366 23.545 21.737 18.208 16.768 16.609 16.585 16.6 16.514 18.468 16.194 16.45 16.108 18.872 19.448 18.218 19.101 21.018 18.832 16.855 15.896 17.651 20.079 20.817 20.157 20.278 21.207 19.014 16.649 14.323 12.955 12.348 12.087 12.051 12.05 11.896 11.872 11.763 11.638 11.667 11.676 11.775 11.046 9.592999 10.832 11.013 11.355 11.022 10.791 10.884 10.447 10.334 10.148 10.059 9.861 9.644 9.573999 9.745 9.547999 9.333 9.188 8.927 8.551 8.736 8.859 8.279 8.882 8.731999 9.296 9.641 9.948 11.296 13.152 15.354 16.921 17.411 17.506 17.244 17.249 16.482 15.926 15.567 14.813 14.159 13.853 13.967 14.263 14.769 14.882 15.761 16.13 15.816 15.611 15.072 14.461 10.677 11.423 10.475 9.717 8.882999 8.724999 9.686 13.587 15.893 15.617 15.816 15.003 13.665 11.959 11.842 14.057 15.252 14.368 11.915 8.629 6.53 6.22 6.311 6.346 6.445 6.613 6.106 5.869 5.62 5.47 5.46 5.306 5.055 4.935 4.699 4.819 4.65 4.671 4.92 4.889 4.265 4.117 4.938 3.228 2.327 6.019 5.634 5.296 5.044 4.704 4.313 4.391 3.946 3.835 3.776 3.762 3.721 4.308 4.328 4.499 4.539 3.912 3.592 3.36 3.107 3.382 4.807 4.765 4.915 4.386 2.293 4.388 4.41 3.202 2.17 2.071 1.878 1.806 2.691 1.931 2.567 3.598 3.423 3.177 2.925 2.501 2.459 4.115 4.733 7.13 7.813 7.991 8.177999 8.727 9.028 9.368999 -999 -999 -999 -999 -999 -999
-999 -999 -999 -999 -999 -999 -999 -999 -999 -999 -999 -999 -999 -999 -999 -999 -999 -999 -999 -999 -999 -999 -999 -999 -999 -999 -999 -999 -999 -999 -999 -999 -999 -999 -999 -999 -999 -999 -999 -999 -999 -999 -999 -999 -999 -999 -999 -999 -999 -999 -999 -999 -999 -999 -999 -999 -999 -999 -999 -999 -999 -999 -999 -999 -999 -999 -999 -999 -999 -999 -999 -999 -999 -999 -999 -999 -999 -999 -999 -999 -999 -999 -999 -999 -999 -999 -999 -999 -999 -999 -999 -999 -999 -999 -999 -999 -999 -999 -999 -999 -999 -999 -999 -999 -999 -999 -999 -999 -999 -999 -999 -999 -999 -999 -999 -999 -999 -999 -999 -999 -999 -999 -999 -999 -999 -999 -999 -999 -999 -999 -999 -999 -999 -999 -999 -999 -999 -999 -999 -999 -999 -999 -999 -999 -999 -999 -999 -999 -999 -999 -999 -999 -999 -999 -999 -999 -999 -999 -999 -999 -999 -999 -999 -999 -999 -999 -999 -999 -999 -999 -999 -999 -999 -999 -999 -999 -999 -999 -999 -999 -999 -999 -999 -999 -999 -999 -999 -999 -999 -999 -999 -999 -999 -999 -999 -999 -999 -999 -999 -999 -999 -999 39.536 39.371 39.417 39.083 38.075 37.841 35.656 33.596 31.259 30.349 30.203 30.08 29.956 29.858 30.592 31.576 30.381 29.579 29.489 29.545 29.745 30.738 32.909 35.086 36.589 36.717 36.308 36.35 36.713 36.846 36.946 36.817 36.81 36.524 36.132 35.453 35.565 36.039 36.436 36.227 36.155 36.333 35.546 35.165 35.125 35.071 34.612 32.973 32.045 32.039 32.588 31.959 29.159 29.954 29.882 28.401 26.8 26.833 28.019 28.217 27.502 27.445 27.589 27.799 28.088 28.46 28.549 28.068 27.651 27.39 27.242 26.838 27.058 26.914 26.839 26.799 26.851 26.791 26.709 26.696 26.636 26.706 26.795 26.467 26.19 25.975 25.657 25.01 24.878 24.449 24.296 23.022 19.091 19.195 20.808 22.037 24.68 27.374 28.985 29.087 28.804 28.687 28.995 28.633 27.926 26.939 25.281 23.415 24.191 25.357 26.194 26.64 26.064 25.364 23.206 22.688 23.184 24.203 24.252 24.253 23.45 22.271 19.575 19.973 20.273 22.925 23.976 24.598 24.641 25.226 24.804 23.715 22.428 21.583 20.564 19.635 18.871 18.041 19.269 21.464 23.054 23.213 24.103 25.422 26.792 26.817 27.168 27.479 27.713 27.711 27.573 27.351 26.961 26.941 26.72 26.178 25.674 25.408 24.63 24.352 23.651 22.819 21.659 19.297 17.126 17.286 18.292 19.062 19.439 18.731 18.801 19.39 20.441 20.035 19.382 19.926 20.642 19.675 19.019 19.939 21.392 21.726 21.607 21.497 21.412 21.277 19.7 16.845 13.938 13.036 12.403 12.058 11.959 11.836 12.05 11.771 11.729 11.858 11.659 11.493 9.875999 11.495 11.567 11.431 11.125 11.043 10.808 10.618 10.566 10.366 10.229 9.896999 9.646 9.83 9.748 9.71 9.543 9.406 9.332 9.309999 9.2 9.172 9.184 9.301 9.123 9.307 10.085 11.869 12.751 14.134 14.884 15.944 16.793 17.598 17.733 17.996 17.929 18.068 18.043 17.463 17.559 17.09 16.596 16.436 16.788 17.338 17.398 17.809 17.506 17.157 16.815 16.866 15.999 15.052 14.501 13.851 14.529 14.37 14.266 14.768 14.498 15.108 15.838 15.837 15.788 15.262 14.627 13.181 12.438 14.246 15.303 14.737 11.9 8.368 7.756 6.889 6.561 6.53 6.355 6.370999 6.084 5.662 5.461 5.374 5.534 5.229 5.055 4.923 4.761 4.564 4.744 4.511 4.689 4.729 4.676 4.625 4.812 2.116 5.408 5.444 4.979 4.638 4.413 4.44 4.256 4.157 4.021 3.869 3.856 3.802 3.762 4.503 4.931 4.627 4.717 3.898 3.675 3.384 2.788 4.93 5.751 5.72 5.82 2.523 4.573 5.082 4.691 4.573 4.381 3.761 1.959 2.972 2.38 2.452 3.334 3.768 3.71 3.689 3.49 3.266 4.015 3.851 4.231 6.148 7.818 8.346 8.816 9.116 9.393 9.577 -999 -999 -999 -999 -999 -999
-999 -999 -999 -999 -999 -999 -999 -999 -999 -999 -999 -999 -999 -999 -999 -999 -999 -999 -999 -999 -999 -999 -999 -999 -999 -999 -999 -999 -999 -999 -999 -999 -999 -999 -999 -999 -999 -999 -999 -999 -999 -999 -999 -999 -999 -999 -999 -999 -999 -999 -999 -999 -999 -999 -999 -999 -999 -999 -999 -999 -999 -999 -999 -999 -999 -999 -999 -999 -999 -999 -999 -999 -999 -999 -999 -999 -999 -999 -999 -999 -999 -999 -999 -999 -999 -999 -999 -999 -999 -999 -999 -999 -999 -999 -999 -999 -999 -999 -999 -999 -999 -999 -999 -999 -999 -999 -999 -999 -999 -999 -999 -999 -999 -999 -999 -999 -999 -999 -999 -999 -999 -999 -999 -999 -999 -999 -999 -999 -999 -999 -999 -999 -999 -999 -999 -999 -999 -999 -999 -999 -999 -999 -999 -999 -999 -999 -999 -999 -999 -999 -999 -999 -999 -999 -999 -999 -999 -999 -999 -999 -999 -999 -999 -999 -999 -999 -999 -999 -999 -999 -999 -999 -999 -999 -999 -999 -999 -999 -999 -999 -999 -999 -999 -999 -999 -999 -999 -999 -999 -999 -999 -999 -999 -999 -999 -999 -999 -999 -999 -999 -999 39.53 39.47 39.31 39.254 38.704 35.968 34.61 33.202 32.013 31.162 30.318 30.117 29.912 29.966 29.901 29.761 29.35 29.664 29.447 29.386 29.17 29.148 30.225 33.433 34.828 34.786 34.816 34.64 35.159 36.676 36.687 36.951 36.928 36.682 36.427 36.431 36.435 36.758 36.649 36.885 36.413 36.39 36.314 36.023 35.602 35.252 35.231 35.038 34.779 34.394 34.229 34.253 33.837 31.678 32.615 32.901 30.549 27.86 26.573 26.723 26.569 26.665 26.935 27.138 27.249 27.475 27.683 27.696 27.542 27.263 27.05 27.048 26.931 26.812 26.754 26.702 26.702 26.62 26.602 26.473 26.461 26.416 26.452 26.497 26.233 25.946 25.735 25.144 24.809 24.701 24.524 24.533 24.539 24.431 23.208 21.119 18.821 22.076 25.768 27.487 28.817 28.665 28.681 28.767 28.208 27.831 27.055 25.659 24.167 23.354 23.757 24.084 24.939 24.747 24.51 24.112 22.08 21.192 21.514 21.261 20.893 20.648 20.577 19.735 19.605 19.94 21.519 21.207 21.506 22.175 23.825 23.941 23.979 22.886 21.976 21.142 19.958 19.702 19.636 20.029 20.781 21.597 23.599 25.169 25.942 26.405 26.636 26.912 27.071 27.191 27.088 26.984 26.832 26.842 26.788 26.615 25.824 24.724 23.237 22.341 22.623 23.5 23.463 23.018 21.751 20.983 21.05 21.334 20.424 20.789 20.141 20.012 19.765 19.066 18.227 18.06 19.665 20.61 20.817 21.184 21.358 21.193 21.05 20.972 21.112 21.04 20.984 20.41 17.656 15.382 13.079 12.475 12.193 12.005 11.726 12.031 11.942 11.824 11.709 11.747 9.802 11.401 11.354 11.339 11.269 11.122 11.03 10.716 10.62 10.559 10.466 10.373 10.056 9.898 9.736 9.750999 9.634 9.438 9.323999 9.316999 9.290999 9.802999 9.366 9.638 10.95 11.88 12.212 13.489 14.165 15.199 16.529 16.56 17.087 17.849 17.985 18.159 18.26 18.26 18.371 18.377 18.763 19.29 18.468 18.303 18.07 18.818 18.941 18.261 18.147 17.678 17.397 16.67 16.561 15.88 15.604 15.068 14.719 14.413 14.513 14.674 14.757 14.711 14.76 14.976 15.354 15.606 15.902 15.939 14.259 13.502 14.713 15.838 14.578 10.988 10.918 11.916 8.893 7.231999 7.174 6.606 6.346 6.035 5.627 5.351 5.239 4.993 5.032 5.03 4.891 4.799 4.654 4.589 4.662 4.637 4.926 4.823 5.227 3.042 4.098 5.392 5.399 4.858 4.586 4.333 4.215 4.081 4.025 3.924 3.828 3.688 3.627 4.679 4.931 5.032 4.607 3.529 3.312 3.608 3.052 2.987 5.001 5.6 5.857 5.115 2.827 4.9 5.44 5.033 5.086 4.918 4.523 4.304 3.823 2.194 3.035 3.644 3.743 3.904 3.839 3.903 3.474 2.178 2.65 2.941 4.844 7.822 8.749 9.15 9.373 9.714 9.84 -999 -999 -999 -999 -999 -999
-999 -999 -999 -999 -999 -999 -999 -999 -999 -999 -999 -999 -999 -999 -999 -999 -999 -999 -999 -999 -999 -999 -999 -999 -999 -999 -999 -999 -999 -999 -999 -999 -999 -999 -999 -999 -999 -999 -999 -999 -999 -999 -999 -999 -999 -999 -999 -999 -999 -999 -999 -999 -999 -999 -999 -999 -999 -999 -999 -999 -999 -999 -999 -999 -999 -999 -999 -999 -999 -999 -999 -999 -999 -999 -999 -999 -999 -999 -999 -999 -999 -999 -999 -999 -999 -999 -999 -999 -999 -999 -999 -999 -999 -999 -999 -999 -999 -999 -999 -999 -999 -999 -999 -999 -999 -999 -999 -999 -999 -999 -999 -999 -999 -999 -999 -999 -999 -999 -999 -999 -999 -999 -999 -999 -999 -999 -999 -999 -999 -999 -999 -999 -999 -999 -999 -999 -999 -999 -999 -999 -999 -999 -999 -999 -999 -999 -999 -999 -999 -999 -999 -999 -999 -999 -999 -999 -999 -999 -999 -999 -999 -999 -999 -999 -999 -999 -999 -999 -999 -999 -999 -999 -999 -999 -999 -999 -999 -999 -999 -999 -999 -999 -999 -999 -999 -999 -999 -999 -999 -999 -999 -999 -999 -999 -999 -999 -999 -999 -999 -999 39.744 39.471 39.084 38.19 37.818 38.074 34.981 34.229 34.402 34.43 32.124 30.913 30.157 29.823 29.732 30.368 30.397 29.21 29.272 29.006 28.803 28.988 29.06 28.638 30.605 31.364 31.303 31.952 32.505 35.339 36.694 36.654 36.926 36.665 36.509 36.156 35.803 34.986 34.719 35.576 35.962 36.344 36.578 36.364 35.99 35.744 35.712 35.422 35.118 34.891 34.719 34.439 34.39 34.111 33.621 34.084 34.099 32.196 28.723 28.404 27.17 26.617 26.576 26.594 26.561 26.682 26.87 27.078 26.908 26.911 26.944 26.889 26.842 26.73 26.582 26.612 26.591 26.63 26.503 26.379 26.3 26.252 26.256 26.238 26.23 25.998 25.76 25.519 25.021 24.797 24.688 24.551 24.804 24.648 24.371 24.077 23.583 22.187 18.752 24.465 25.673 27.51 28.324 28.572 28.162 27.77 27.725 27.276 26.165 25.572 23.835 22.15 22.171 22.342 22.101 22.54 21.997 21.024 20.537 20.318 20.446 20.103 19.845 19.484 19.829 19.633 19.598 19.447 19.452 19.543 19.772 20.93 21.321 21.753 22.362 22.179 21.561 20.521 19.569 17.963 16.767 17.905 18.802 20.218 22.912 24.661 25.84 26.373 26.33 26.474 26.538 26.398 26.273 26.354 26.623 26.838 26.247 25.598 24.391 22.919 21.29 20.666 20.958 22.455 22.8 22.663 21.905 21.906 21.345 21.415 21.249 20.063 19.075 17.966 16.549 15.516 15.981 18.393 19.98 20.072 20.494 20.432 19.59 18.012 18.208 19.915 20.36 18.563 17.678 16.481 14.021 12.694 12.625 12.321 12.227 12.088 11.945 11.947 11.991 12.101 11.098 11.796 11.737 11.465 11.34 11.261 11.117 10.975 10.761 10.421 10.457 10.383 10.353 10.254 10.044 9.955999 9.972 9.689 9.457 9.441 9.433 9.92 10.718 11.18 12.582 14.228 14.819 15.447 16.094 16.104 16.525 17.266 17.684 17.914 18.054 18.334 18.522 18.552 18.396 18.38 18.8 19.395 19.721 19.057 19.466 19.214 19.226 19.085 18.794 18.771 18.224 17.573 17.073 16.458 15.496 15.641 15.245 14.518 14.089 13.912 13.845 14.03 14.273 14.561 14.477 14.772 14.593 13.97 15.748 15.937 16.727 15.953 15.447 13.513 12.967 13.981 13.539 9.948999 8.282 8.321 6.653 6.434999 5.869 5.343 5.321 5.255 5.122 5.088 5.055 4.971 4.88 4.756 4.599 4.789 5.051 5.092 4.978 4.73 2.468 5.615 5.332 5.156 4.734 4.454 4.266 4.175 4.057 3.945 3.797 3.648 3.542 3.52 4.435 5.065 5.056 3.409 2.882 2.906 2.85 2.776 2.63 4.036 4.992 4.99 2.603 4.148 5.557 5.393 5.309 5.224 5.117 4.855 4.544 3.789 4.105 4.205 4.164 4.167 4.073 3.768 3.619 3.384 2.063 2.351 2.536 3.586 8.113 9.363999 9.362 9.710999 10.239 10.753 -999 -999 -999 -999 -999 -999
-999 -999 -999 -999 -999 -999 -999 -999 -999 -999 -999 -999 -999 -999 -999 -999 -999 -999 -999 -999 -999 -999 -999 -999 -999 -999 -999 -999 -999 -999 -999 -999 -999 -999 -999 -999 -999 -999 -999 -999 -999 -999 -999 -999 -999 -999 -999 -999 -999 -999 -999 -999 -999 -999 -999 -999 -999 -999 -999 -999 -999 -999 -999 -999 -999 -999 -999 -999 -999 -999 -999 -999 -999 -999 -999 -999 -999 -999 -999 -999 -999 -999 -999 -999 -999 -999 -999 -999 -999 -999 -999 -999 -999 -999 -999 -999 -999 -999 -999 -999 -999 -999 -999 -999 -999 -999 -999 -999 -999 -999 -999 -999 -999 -999 -999 -999 -999 -999 -999 -999 -999 -999 -999 -999 -999 -999 -999 -999 -999 -999 -999 -999 -999 -999 -999 -999 -999 -999 -999 -999 -999 -999 -999 -999 -999 -999 -999 -999 -999 -999 -999 -999 -999 -999 -999 -999 -999 -999 -999 -999 -999 -999 -999 -999 -999 -999 -999 -999 -999 -999 -999 -999 -999 -999 -999 -999 -999 -999 -999 -999 -999 -999 -999 -999 -999 -999 -999 -999 -999 -999 -999 -999 -999 -999 -999 -999 -999 -999 -999 -999 39.816 39.534 39.104 38.28 36.31 35.765 35.168 36.603 37.645 36.851 35.012 34 33.158 32.591 31.771 31.208 31.796 31.975 31.616 30.399 29.634 29.31 29.126 28.902 27.953 27.364 29.719 30.172 30.625 32.078 34.044 35.241 35.33 35.586 35.421 34.146 32.36 30.626 31.156 33.824 34.711 35.664 36.026 35.83 35.653 35.461 35.914 35.422 35.12 34.823 34.681 34.481 34.284 33.877 33.665 33.869 34.087 33.127 30.778 30.398 30 28.025 26.603 26.239 26.07 26.097 26.226 26.52 26.518 26.606 26.671 26.669 26.534 26.437 26.234 26.072 25.919 26.125 26.327 26.216 25.941 25.988 26.001 25.97 25.898 25.706 25.505 25.29 24.898 24.699 24.574 24.61 24.804 24.565 24.327 23.98 23.658 23.378 19.732 22.05 24.334 25.495 26.738 27.685 27.893 27.98 27.769 27.33 26.93 26.863 26.005 23.884 22.456 21.829 21.43 21.125 21.278 20.824 20.689 20.617 21.07 20.94 20.427 20.008 19.879 19.077 19.112 19 18.995 19.175 19.546 19.706 19.668 19.556 20.463 20.879 21.14 19.385 18.451 17.872 17.224 16.366 17.486 18.447 19.93 22.883 24.209 25.681 25.871 25.961 25.962 25.839 25.602 25.731 26.024 26.252 25.931 25.219 24.187 23.022 21.441 19.859 19.352 21.076 21.495 22.095 21.278 21.289 20.856 21.632 20.434 19.024 17.367 16.088 14.79 14.974 14.676 14.831 16.797 17.108 16.307 15.743 16.546 14.535 15.456 15.862 15.199 13.598 13.555 13.174 12.561 12.448 12.554 12.11 11.446 10.2 10.012 10.012 10.683 10.455 9.934 11.71 11.729 11.639 11.468 11.394 11.2 10.995 10.691 10.395 10.372 10.377 10.293 9.964 9.698 9.609 9.687 9.531 9.564 9.413 9.492 11.761 13.793 14.301 14.497 15.756 16.631 16.974 17.434 17.295 17.598 17.79 17.993 18.084 18.261 18.624 19.059 18.891 18.947 18.934 19.149 19.419 19.787 19.741 19.848 19.779 19.404 19.41 19.157 18.846 18.734 18.643 17.957 16.985 16.113 15.088 15.395 14.585 13.343 12.942 12.91 12.925 13.132 13.529 14.059 13.026 11.69 9.977 12.479 15.928 15.895 16.171 15.478 15.008 15.342 15.541 14.803 13.635 11.407 10.575 7.212 6.481999 6.027 5.441 5.338 5.578 5.325 5.244 5.154 5.078 4.974 4.9 4.864 4.968 5.213 5.163 2.929 2.603 5.828 4.886 5.002 4.944 4.592 4.386 4.28 4.155 4.057 3.992 3.819 3.678 3.618 3.683 3.958 3.582 3.664 2.844 2.795 2.72 2.683 2.706 2.595 2.624 2.612 3.303 2.585 4.374 5.934 5.772 5.68 5.383 5.412 5.236 4.708 2.351 2.733 3.196 4.377 3.598 3.516 3.646 3.748 3.495 2.468 2.094 2.548 2.889 6.981999 9.385 10.089 10.217 10.857 11.543 -999 -999 -999 -999 -999 -999
-999 -999 -999 -999 -999 -999 -999 -999 -999 -999 -999 -999 -999 -999 -999 -999 -999 -999 -999 -999 -999 -999 -999 -999 -999 -999 -999 -999 -999 -999 -999 -999 -999 -999 -999 -999 -999 -999 -999 -999 -999 -999 -999 -999 -999 -999 -999 -999 -999 -999 -999 -999 -999 -999 -999 -999 -999 -999 -999 -999 -999 -999 -999 -999 -999 -999 -999 -999 -999 -999 -999 -999 -999 -999 -999 -999 -999 -999 -999 -999 -999 -999 -999 -999 -999 -999 -999 -999 -999 -999 -999 -999 -999 -999 -999 -999 -999 -999 -999 -999 -999 -999 -999 -999 -999 -999 -999 -999 -999 -999 -999 -999 -999 -999 -999 -999 -999 -999 -999 -999 -999 -999 -999 -999 -999 -999 -999 -999 -999 -999 -999 -999 -999 -999 -999 -999 -999 -999 -999 -999 -999 -999 -999 -999 -999 -999 -999 -999 -999 -999 -999 -999 -999 -999 -999 -999 -999 -999 -999 -999 -999 -999 -999 -999 -999 -999 -999 -999 -999 -999 -999 -999 -999 -999 -999 -999 -999 -999 -999 -999 -999 -999 -999 -999 -999 -999 -999 -999 -999 -999 -999 -999 -999 -999 -999 -999 -999 -999 -999 40.012 39.798 39.518 39.139 38.609 36.422 36.596 37.245 38.202 35.97 32.941 32.984 35.412 36.415 34.463 33.673 33.578 33.556 32.044 32.48 31.75 30.308 29.31 29.224 29.086 28.856 28.434 29.415 29.53 29.037 28.792 29.894 30.372 30.586 32.205 32.553 30.677 29.042 29.224 30.019 30.668 31.057 33.294 34.707 35.277 34.731 34.669 35.035 34.908 34.636 34.388 34.346 33.634 31.421 30.05 28.72 30.076 31.678 32.763 28.857 28.138 28.776 27.061 26.394 25.865 25.902 25.81 25.773 26.181 26.309 26.395 26.383 26.344 26.272 26.183 25.894 25.549 25.136 26.244 26.223 26.062 26.022 25.755 25.779 25.728 25.65 25.515 25.284 25.113 24.774 24.673 24.529 24.806 24.627 24.447 24.212 23.975 23.811 23.578 23.527 18.455 23.21 23.939 24.998 25.781 27.019 27.606 27.881 27.431 27.302 26.917 26.921 26.088 24.282 22.432 22.719 22.704 22.298 22.355 22.418 22.747 23.702 23.979 24.25 20.904 19.699 19.707 19.607 19.131 18.466 18.776 18.659 18.533 18.817 19.184 19.203 19.711 20.09 18.62 17.803 17.481 17.163 16.343 16.429 17.668 19.123 20.817 23.421 25.202 25.457 25.562 25.411 25.515 25.507 25.516 25.718 25.843 25.643 25.24 24.295 23.339 21.72 19.292 18.104 18.697 18.695 18.069 19.401 20.702 22.06 19.456 18.742 17.424 15.484 14.775 14.371 14.307 14.025 13.78 14.123 14.054 13.966 13.229 13.208 13.326 13.447 13.424 13.027 12.903 12.82 12.681 10.838 11.327 11.903 12.756 12.35 12.46 12.319 11.996 12.145 11.667 11.679 11.698 11.558 11.709 12.062 11.489 11.3 11.132 11.006 10.533 10.722 10.082 10.136 10.443 9.577 9.562 9.823 9.467 9.441999 9.591 9.686 12.31 14.53 15.28 15.905 16.607 17.559 17.725 17.528 17.685 17.769 17.833 18.021 18.103 18.303 18.514 18.729 18.887 18.967 19.135 19.205 19.369 19.596 19.782 19.84 19.804 19.473 19.187 19.112 19.061 18.835 18.862 17.804 16.866 16.113 14.7 14.877 14.504 13.454 12.296 12.025 11.789 11.914 11.962 11.708 10.824 8.236 7.801 10.028 13.368 15.319 15.737 16.001 15.774 16.132 16.187 15.787 14.608 14.434 12.083 7.358 6.622 6.085 5.794 5.714 5.657 5.329 5.328 5.246 5.206 5.208 5.176 5.109 5.245 3.951 2.286 4.02 5.788 5.436 5.332 4.861 4.882 4.571 4.418 4.308 4.143 4.024 3.965 3.805 3.643 3.738 3.592 4.476 5.664 2.875 2.768 2.751 2.707 2.787 2.612 2.61 2.64 2.575 2.6 4.496 4.812 5.827 5.791 5.888 5.395 5.378 5.199 3.684 2.786 3.113 4.777 5.078 3.838 3.436 3.563 3.549 3.381 3.029 1.735 2.461 2.839 4.809 8.983 10.475 10.835 11.525 12.091 -999 -999 -999 -999 -999 -999
-999 -999 -999 -999 -999 -999 -999 -999 -999 -999 -999 -999 -999 -999 -999 -999 -999 -999 -999 -999 -999 -999 -999 -999 -999 -999 -999 -999 -999 -999 -999 -999 -999 -999 -999 -999 -999 -999 -999 -999 -999 -999 -999 -999 -999 -999 -999 -999 -999 -999 -999 -999 -999 -999 -999 -999 -999 -999 -999 -999 -999 -999 -999 -999 -999 -999 -999 -999 -999 -999 -999 -999 -999 -999 -999 -999 -999 -999 -999 -999 -999 -999 -999 -999 -999 -999 -999 -999 -999 -999 -999 -999 -999 -999 -999 -999 -999 -999 -999 -999 -999 -999 -999 -999 -999 -999 -999 -999 -999 -999 -999 -999 -999 -999 -999 -999 -999 -999 -999 -999 -999 -999 -999 -999 -999 -999 -999 -999 -999 -999 -999 -999 -999 -999 -999 -999 -999 -999 -999 -999 -999 -999 -999 -999 -999 -999 -999 -999 -999 -999 -999 -999 -999 -999 -999 -999 -999 -999 -999 -999 -999 -999 -999 -999 -999 -999 -999 -999 -999 -999 -999 -999 -999 -999 -999 -999 -999 -999 -999 -999 -999 -999 -999 -999 -999 -999 -999 -999 -999 -999 -999 -999 -999 -999 -999 -999 -999 -999 40.386 40.17 39.886 39.553 38.924 37.93 37.809 38.557 38.548 38.117 34.701 31.221 31.068 32.122 33.035 31.044 31.1 31.228 30.667 30.809 30.497 30.295 29.391 29.58 29.529 29.133 28.996 28.754 28.516 29.115 28.608 28.662 28.782 28.979 28.933 29.007 29.142 28.809 28.195 28.155 28.306 28.37 28.462 29.66 30.876 31.4 30.337 30.544 31.884 31.514 30.538 32.801 33.032 30.462 27.692 26.967 26.919 26.755 27.118 27.055 27.059 26.772 26.59 26.554 26.468 25.666 25.796 25.711 25.709 26.092 26.286 26.338 26.349 26.272 26.013 25.959 25.559 25.435 24.872 26.472 26.326 26.097 25.835 25.796 25.659 25.207 25.445 25.341 25.201 25.055 24.844 24.757 24.718 24.484 24.425 24.296 24.117 24.067 24.098 23.675 23.436 20.094 20.325 22.678 23.484 24.005 25.815 26.752 26.932 26.553 26.669 26.841 26.511 25.687 24.204 23.13 24.779 25.485 25.625 25.53 24.512 24.806 25.204 25.053 24.927 23.018 20.245 21.112 20.894 19.703 18.744 18.602 18.53 18.445 18.248 18.601 18.731 18.965 18.854 18.081 17.543 17.333 17.017 16.419 15.565 17.085 19.521 22.983 24.437 25.157 25.236 25.253 25.24 25.334 25.516 25.267 25.464 25.561 25.487 25.09 23.965 23.267 21.773 19.14 17.722 17.261 16.93 16.584 17.244 19.374 21.426 21.856 17.646 16.323 15.025 14.696 14.241 13.92 13.869 13.798 13.517 11.319 12.771 13.414 12.983 11.311 11.18 12.894 11.821 10.667 11.132 12.356 12.53 12.609 12.311 12.364 12.382 12.337 12.278 12.079 12.02 11.858 11.841 11.935 11.707 11.625 11.783 11.44 11.54 11.232 11.113 10.949 10.923 10.236 9.927 10.114 10.144 9.806 9.818 9.608 9.776 9.808 9.92 11.345 15.415 15.763 16.472 17.26 17.676 17.799 17.616 17.865 17.854 17.658 17.932 18.021 18.264 18.409 18.661 18.666 18.869 18.906 19.066 19.145 19.395 19.616 19.768 19.795 19.316 19.131 19.052 18.923 18.404 18.227 17.166 16.336 15.105 13.927 14.302 14.722 13.362 12.349 11.379 10.43 10.131 9.668 9.127 8.040999 7.03 7.012 7.229 8.24 11.871 14.612 15.332 15.836 16.148 16.428 16.414 16.104 15.91 11.051 7.327 6.04 5.757 5.461 5.448 5.58 5.4 5.446 5.354 5.353 5.425 5.389 4.665 2.709 3.417 5.463 5.677 5.341 5.039 4.86 4.659 4.376 4.53 4.554 4.393 4.165 4.043 4.008 3.696 3.575 3.507 3.772 3.559 3.284 2.871 2.791 2.737 2.755 2.741 2.666 2.665 2.655 2.598 3.971 5.251 5.507 5.512 5.877 5.559 5.649 5.272 5.275 2.021 2.347 2.511 4.39 3.794 3.872 3.422 3.739 3.436 3.206 2.866 2.287 2.165 2.717 3.13 8.21 9.737 11.09 12.153 12.881 -999 -999 -999 -999 -999 -999
-999 -999 -999 -999 -999 -999 -999 -999 -999 -999 -999 -999 -999 -999 -999 -999 -999 -999 -999 -999 -999 -999 -999 -999 -999 -999 -999 -999 -999 -999 -999 -999 -999 -999 -999 -999 -999 -999 -999 -999 -999 -999 -999 -999 -999 -999 -999 -999 -999 -999 -999 -999 -999 -999 -999 -999 -999 -999 -999 -999 -999 -999 -999 -999 -999 -999 -999 -999 -999 -999 -999 -999 -999 -999 -999 -999 -999 -999 -999 -999 -999 -999 -999 -999 -999 -999 -999 -999 -999 -999 -999 -999 -999 -999 -999 -999 -999 -999 -999 -999 -999 -999 -999 -999 -999 -999 -999 -999 -999 -999 -999 -999 -999 -999 -999 -999 -999 -999 -999 -999 -999 -999 -999 -999 -999 -999 -999 -999 -999 -999 -999 -999 -999 -999 -999 -999 -999 -999 -999 -999 -999 -999 -999 -999 -999 -999 -999 -999 -999 -999 -999 -999 -999 -999 -999 -999 -999 -999 -999 -999 -999 -999 -999 -999 -999 -999 -999 -999 -999 -999 -999 -999 -999 -999 -999 -999 -999 -999 -999 -999 -999 -999 -999 -999 -999 -999 -999 -999 -999 -999 -999 -999 -999 -999 -999 -999 -999 40.59 40.529 40.343 40.16 39.958 39.832 39.546 39.033 39.05 38.494 36.275 33.548 31.022 30.812 30.427 30.376 30.038 30.007 29.976 29.955 29.833 29.72 29.618 29.628 29.469 29.337 29.171 29.007 28.973 28.789 28.656 28.248 27.951 27.24 27.191 27.995 28.683 28.402 28.054 27.94 27.8 28.016 28.053 27.946 28.153 28.207 27.99 27.978 27.556 27.36 27.836 27.867 28.137 28.053 27.337 26.753 26.651 26.776 26.634 26.442 26.557 26.722 26.813 26.636 26.504 26.487 25.957 25.812 25.562 25.736 26.237 26.496 26.543 26.464 26.28 25.74 25.578 25.529 25.454 24.733 26.516 26.384 26.206 25.983 25.793 25.73 25.583 25.397 25.262 25.074 24.957 24.833 24.671 24.547 24.373 24.263 24.188 24.117 24.053 23.895 23.758 23.243 22.484 18.81 22.021 22.919 23.32 24.551 25.521 25.388 24.698 25.56 26.611 26.775 26.18 25.22 24.315 24.644 26.618 26.865 26.543 26.709 26.411 25.859 25.305 25.154 23.804 21.987 21.149 19.939 19.016 18.947 18.784 18.451 18.127 17.818 17.879 18.053 17.936 17.998 17.892 17.548 17.313 17.035 16.507 15.846 16.591 18.933 23.141 24.336 24.714 24.811 24.914 24.963 24.947 24.896 24.722 24.961 24.954 24.843 24.377 23.562 22.448 20.908 18.494 16.969 16.586 16.338 16.011 16.115 17.547 18.964 19.434 17.846 15.784 15.076 14.596 14.299 13.865 13.733 13.237 11.641 13.516 13.565 13.216 13.04 13.085 12.903 13.994 13.926 13.646 13.104 12.397 12.463 12.555 12.673 12.529 12.393 12.303 12.261 12.212 12.255 12.262 12.208 12.287 12.261 12.162 12.261 12.353 12.349 11.586 11.24 10.926 10.651 10.609 10.023 9.556 9.632 9.735 10.013 9.557 9.929999 10.049 10.178 12.064 15.486 16.131 17.046 17.425 17.659 17.783 17.814 17.768 17.577 17.795 17.821 18.042 18.23 18.32 18.564 18.702 18.936 18.601 18.994 18.898 19.511 19.872 20.041 19.781 19.39 18.996 19.035 18.493 17.631 16.41 15.352 13.994 12.984 12.32 10.94 13.139 13.623 11.949 8.861 7.223 7.212 6.986 7.276999 6.757 6.585999 6.638 6.573 6.762 7.576 11.079 13.402 15.184 15.916 16.04 16.667 16.504 13.681 8.102 7.32 5.961 5.669 5.276 5.547 5.431 5.452 5.599 5.437 5.469 5.291 3.407 2.648 5.78 5.813 5.881 5.441 4.76 4.578 4.572 4.56 4.699 4.407 4.499 4.517 4.183 3.987 3.837 3.399 3.436 3.551 3.534 3.477 3.466 3.438 3.409 3.181 3.072 4.5 3.071 2.641 3.932 5.141 5.514 5.103 5.464 5.995 5.948 5.37 5.673 5.484 3.388 2.628 2.696 2.876 2.835 3.156 3.467 3.357 3.443 3.293 3.085 2.544 2.367 1.889 2.626 3.078 3.911 5.832 8.697 11.712 12.317 -999 -999 -999 -999 -999 -999
-999 -999 -999 -999 -999 -999 -999 -999 -999 -999 -999 -999 -999 -999 -999 -999 -999 -999 -999 -999 -999 -999 -999 -999 -999 -999 -999 -999 -999 -999 -999 -999 -999 -999 -999 -999 -999 -999 -999 -999 -999 -999 -999 -999 -999 -999 -999 -999 -999 -999 -999 -999 -999 -999 -999 -999 -999 -999 -999 -999 -999 -999 -999 -999 -999 -999 -999 -999 -999 -999 -999 -999 -999 -999 -999 -999 -999 -999 -999 -999 -999 -999 -999 -999 -999 -999 -999 -999 -999 -999 -999 -999 -999 -999 -999 -999 -999 -999 -999 -999 -999 -999 -999 -999 -999 -999 -999 -999 -999 -999 -999 -999 -999 -999 -999 -999 -999 -999 -999 -999 -999 -999 -999 -999 -999 -999 -999 -999 -999 -999 -999 -999 -999 -999 -999 -999 -999 -999 -999 -999 -999 -999 -999 -999 -999 -999 -999 -999 -999 -999 -999 -999 -999 -999 -999 -999 -999 -999 -999 -999 -999 -999 -999 -999 -999 -999 -999 -999 -999 -999 -999 -999 -999 -999 -999 -999 -999 -999 -999 -999 -999 -999 -999 -999 -999 -999 -999 -999 -999 -999 -999 -999 -999 -999 -999 -999 -999 40.762 40.658 40.532 40.338 40.081 39.827 39.759 39.455 39.234 39.014 37.204 32.551 31.273 30.94 30.614 30.485 30.304 30.292 30.186 30.014 29.91 29.924 29.708 29.592 29.435 29.359 29.309 29.176 29.072 28.749 28.75 28.715 28.645 28.601 28.58 28.345 27.526 26.787 26.66 27.284 26.559 26.829 28.059 28.089 27.472 26.786 27.411 27.64 27.333 27.334 27.569 27.136 27.403 27.279 26.87 26.846 26.031 25.342 25.131 25.38 25.101 25.002 24.948 25.498 25.793 24.942 25.163 25.004 25.954 25.746 26.546 26.557 26.483 26.48 26.341 26.044 25.803 25.471 25.555 25.096 26.446 26.449 26.315 25.959 25.699 25.599 25.459 25.423 25.289 25.03 24.945 24.83 24.678 24.533 24.329 24.148 24.114 24.073 24 23.863 23.669 23.489 22.905 23.104 18.306 21.703 22.383 23.344 24.124 24.278 24.128 24.122 24.928 25.949 26.42 26.473 26.179 25.967 26.228 26.484 26.646 26.778 26.634 25.839 24.539 23.911 23.308 21.972 19.722 18.987 18.959 18.955 18.94 18.662 18.375 18.007 18.034 17.866 17.664 17.663 17.933 17.73 17.43 17.045 16.552 15.949 16.141 17.975 20.823 22.739 23.532 23.689 24.259 24.85 24.404 23.702 24.759 24.481 24.271 23.912 23.491 22.842 21.846 20.113 17.974 16.424 16.297 15.881 15.391 15.325 15.412 15.867 16.148 15.936 15.344 14.764 14.509 14.351 13.866 11.618 13.366 13.616 13.44 13.404 13.27 13.095 12.985 12.71 13.55 13.751 13.461 12.873 12.632 12.721 12.569 12.492 12.462 12.326 12.318 12.306 12.357 12.585 12.782 12.45 12.778 12.558 12.378 12.36 12.405 12.628 12.493 11.421 10.634 10.713 10.281 10.095 9.927 9.955999 9.899 9.929999 9.852 10.09 10.317 11.193 13.225 16.072 17.03 17.991 17.953 17.988 17.923 17.74 17.828 17.517 17.476 17.586 17.722 18.258 18.55 18.322 18.458 18.648 18.68 18.93 18.968 19.515 19.744 19.868 19.948 19.333 18.794 18.247 17.564 16.254 13.943 12.65 11.513 10.789 10.609 10.549 10.061 13.356 12.125 8.562 7.557 6.898 6.873 6.569 6.474 6.354 6.445 6.235 6.444 6.786 9.646 14.16 11.955 15.076 15.883 16.469 16.1 11.459 7.911 6.546 6.123 5.974 5.56 5.806 5.744 5.693 5.733 5.183 3.815 2.635 4.326 6.157 5.966 5.965 5.563 4.962 4.419 4.27 4.536 4.4 4.356 4.346 4.373 4.364 4.184 3.941 3.719 3.56 3.451 3.497 3.492 3.382 3.43 3.465 3.651 3.587 3.667 4.032 2.947 3.612 4.686 5.197 5.35 4.735 5.572 5.702 5.281 5.429 5.695 5.319 1.966 2.839 2.8 2.321 2.793 2.912 3.107 3.126 3.125 3.043 2.906 2.522 2.382 1.876 2.342 2.939 3.647 5.02 8.035 11.502 11.973 -999 -999 -999 -999 -999 -999
-999 -999 -999 -999 -999 -999 -999 -999 -999 -999 -999 -999 -999 -999 -999 -999 -999 -999 -999 -999 -999 -999 -999 -999 -999 -999 -999 -999 -999 -999 -999 -999 -999 -999 -999 -999 -999 -999 -999 -999 -999 -999 -999 -999 -999 -999 -999 -999 -999 -999 -999 -999 -999 -999 -999 -999 -999 -999 -999 -999 -999 -999 -999 -999 -999 -999 -999 -999 -999 -999 -999 -999 -999 -999 -999 -999 -999 -999 -999 -999 -999 -999 -999 -999 -999 -999 -999 -999 -999 -999 -999 -999 -999 -999 -999 -999 -999 -999 -999 -999 -999 -999 -999 -999 -999 -999 -999 -999 -999 -999 -999 -999 -999 -999 -999 -999 -999 -999 -999 -999 -999 -999 -999 -999 -999 -999 -999 -999 -999 -999 -999 -999 -999 -999 -999 -999 -999 -999 -999 -999 -999 -999 -999 -999 -999 -999 -999 -999 -999 -999 -999 -999 -999 -999 -999 -999 -999 -999 -999 -999 -999 -999 -999 -999 -999 -999 -999 -999 -999 -999 -999 -999 -999 -999 -999 -999 -999 -999 -999 -999 -999 -999 -999 -999 -999 -999 -999 -999 -999 -999 -999 -999 -999 -999 -999 -999 -999 40.93 40.8 40.651 40.493 40.24 39.878 39.92 39.44 38.872 37.517 34.874 31.641 31.192 30.94 30.719 30.475 30.469 30.378 30.292 30.219 30.051 29.928 29.845 29.64 29.633 29.566 29.411 29.255 29.159 29.122 28.638 27.903 27.146 28.145 27.374 27.469 26.877 28.312 28.394 28.432 28.438 28.095 27.577 27.745 27.994 27.983 27.97 27.746 27.82 27.55 27.795 27.21 27.028 26.395 26.405 26.651 26.567 26.513 26.622 26.533 26.407 25.956 25.724 25.793 25.77 25.523 25.496 25.391 25.802 26.121 25.209 25.16 25.795 25.845 25.754 25.8 25.714 25.49 25.394 25.456 26.494 26.491 26.238 25.923 25.634 25.48 25.319 25.174 24.579 25.133 24.764 24.823 24.674 24.496 24.287 23.973 24.115 24.069 23.991 23.867 23.607 23.501 23.32 23.012 21.882 18.423 22.008 22.539 22.853 23.167 23.377 23.297 23.662 24.939 26.076 25.95 25.732 25.623 25.821 26.204 26.502 26.374 25.923 25.672 22.69 21.537 21.816 20.512 19.48 18.84 18.838 19.128 19.169 18.492 16.838 15.685 16.181 17.847 17.873 17.797 17.625 17.708 17.371 16.999 16.596 16.041 15.557 16.724 17.804 20.208 20.847 20.7 21.876 24.092 23.178 22.232 23.678 23.675 23.247 22.833 22.405 22.069 21.204 20.151 18.891 17.775 16.699 15.773 15.292 15.096 15.117 15.263 15.381 15.271 15.011 14.766 14.8 14.8 11.591 13.698 13.641 13.616 13.486 13.339 13.284 13.06 12.94 12.87 13.683 13.757 13.393 12.931 12.741 12.374 12.751 12.535 12.456 12.278 12.351 12.402 12.561 12.902 13.019 13.002 16.173 16.185 15.362 13.103 12.188 11.978 11.806 11.466 10.863 10.882 10.612 10.301 10.445 10.392 10.365 10.381 10.338 10.876 11.648 13.536 15.698 17.136 17.953 18.075 17.981 17.49 17.226 17.241 17.15 16.986 17.037 17.403 17.845 18.403 18.71 18.529 18.46 18.789 19.027 18.838 18.973 18.746 19.492 18.868 19.309 18.533 18.381 17.801 16.917 15.089 12.047 10.363 10.036 9.886 9.997 9.677 9.151 8.955999 12.243 10.942 7.221 6.931 6.893 6.382 6.439 6.325 6.194 5.868 6.042 6.481 7.286 11.154 12.109 10.778 11.95 11.755 13.828 9.139 7.245 6.28 6.086 5.806 5.562 5.6 5.573 4.021 2.953 3.124 4.389 6.721 5.952 5.972 5.627 5.355 4.969 4.607 4.332 4.244 4.275 4.299 4.331 4.247 4.217 4.26 4.202 4.065 3.768 3.715 3.536 3.491 3.598 3.606 3.463 3.35 3.452 3.469 3.446 3.917 4.158 3.271 4.326 4.932 5.17 4.831 5.231 5.144 5.346 5.331 5.21 3.572 2.543 2.817 2.759 2.617 2.8 2.912 2.955 2.883 2.879 2.839 2.771 3.002 2.533 2.154 2.424 2.824 3.575 5.171 10.289 11.586 11.819 -999 -999 -999 -999 -999 -999
-999 -999 -999 -999 -999 -999 -999 -999 -999 -999 -999 -999 -999 -999 -999 -999 -999 -999 -999 -999 -999 -999 -999 -999 -999 -999 -999 -999 -999 -999 -999 -999 -999 -999 -999 -999 -999 -999 -999 -999 -999 -999 -999 -999 -999 -999 -999 -999 -999 -999 -999 -999 -999 -999 -999 -999 -999 -999 -999 -999 -999 -999 -999 -999 -999 -999 -999 -999 -999 -999 -999 -999 -999 -999 -999 -999 -999 -999 -999 -999 -999 -999 -999 -999 -999 -999 -999 -999 -999 -999 -999 -999 -999 -999 -999 -999 -999 -999 -999 -999 -999 -999 -999 -999 -999 -999 -999 -999 -999 -999 -999 -999 -999 -999 -999 -999 -999 -999 -999 -999 -999 -999 -999 -999 -999 -999 -999 -999 -999 -999 -999 -999 -999 -999 -999 -999 -999 -999 -999 -999 -999 -999 -999 -999 -999 -999 -999 -999 -999 -999 -999 -999 -999 -999 -999 -999 -999 -999 -999 -999 -999 -999 -999 -999 -999 -999 -999 -999 -999 -999 -999 -999 -999 -999 -999 -999 -999 -999 -999 -999 -999 -999 -999 -999 -999 -999 -999 -999 -999 -999 -999 -999 -999 -999 -999 -999 -999 41.068 40.86 40.649 40.434 40.418 39.918 39.707 39.479 37.285 33.771 32.275 31.457 31.349 30.977 30.834 30.53 30.571 28.717 28.751 30.476 30.184 30.032 29.994 29.923 29.835 29.707 29.521 29.424 28.936 28.358 29.543 29.566 29.221 28.804 28.698 28.686 28.411 28.584 28.386 28.332 28.228 27.951 27.687 27.686 27.744 27.456 27.48 27.608 27.427 27.239 26.988 26.909 26.889 26.82 26.626 26.556 26.496 26.346 26.272 26.054 25.926 25.705 26.011 25.579 25.519 25.494 25.36 25.254 25.491 25.722 25.631 25.436 25.809 26.306 25.852 25.165 25.072 24.49 23.714 24.135 24.997 26.111 26.027 25.782 25.507 25.344 25.179 25.034 24.977 24.995 24.905 24.925 24.666 24.526 24.319 24.112 24.147 24.114 24.025 23.862 23.655 23.516 23.516 23.462 23.151 19.917 20.394 22.295 22.975 22.763 22.655 22.364 22.984 23.895 25.011 25.452 24.849 24.082 25.292 25.696 25.638 25.541 24.987 23.792 22.07 20.248 20.386 19.724 19.311 18.749 18.675 17.146 16.02 17.625 18.704 17.86 18.188 16.481 15.782 17.768 17.639 17.378 17.144 17.008 16.619 16.202 15.7 15.705 16.831 17.96 18.593 18.977 20.999 21.936 20.25 20.645 22.456 23.127 22.28 21.663 21.29 21.054 20.963 20.497 19.788 18.537 16.69 15.586 14.982 13.294 12.525 14.653 14.774 14.794 14.797 14.784 14.01 14.8 14.8 13.771 13.655 13.617 13.489 13.47 13.276 12.927 13.085 13.232 13.353 13.471 13.058 13.038 12.9 12.751 12.738 12.945 12.569 12.654 12.446 12.871 13.19 13.411 13.267 16.075 17.281 16.848 15.516 12.803 11.887 11.518 11.738 11.626 11.48 11.306 10.982 10.702 10.991 10.867 10.577 10.819 11.251 12.664 14.56 15.779 17.113 18.146 18.699 18.285 17.846 16.997 16.731 16.804 16.513 16.808 16.99 17.385 17.969 18.587 18.489 18.777 18.822 18.569 18.025 15.66 15.387 15.301 12.57 11.192 14.311 17.337 17.581 17.609 16.225 13.981 10.963 10.078 9.943 9.858 9.624 9.266 8.309999 7.842 8.271 10.921 8.877 6.79 6.62 6.552999 6.214 6.093 6.074 6.042 6.013 6.061 6.142 7.833 10.381 9.993 9.802999 9.458 9.115 8.085 5.852 5.975 5.834 5.961 4.249 3.169 2.915 4.022 6.855 6.55 6.687 6.186 5.45 5.25 4.593 4.571 4.361 4.184 4.075 4.028 3.962 4.007 4.168 4.102 4.092 4.226 4.404 4.301 4.813 3.911 3.744 3.436 3.48 3.465 3.454 3.403 3.444 3.644 3.44 4.576 4.016 3.424 5.261 4.938 5.021 4.803 5.201 5.548 5.622 5.403 4.808 2.047 2.711 2.668 2.707 2.613 2.31 2.886 2.839 2.552 2.737 2.612 2.248 2.691 2.738 2.497 2.609 3.083 4.397 8.375 11.273 11.86 11.966 -999 -999 -999 -999 -999 -999
-999 -999 -999 -999 -999 -999 -999 -999 -999 -999 -999 -999 -999 -999 -999 -999 -999 -999 -999 -999 -999 -999 -999 -999 -999 -999 -999 -999 -999 -999 -999 -999 -999 -999 -999 -999 -999 -999 -999 -999 -999 -999 -999 -999 -999 -999 -999 -999 -999 -999 -999 -999 -999 -999 -999 -999 -999 -999 -999 -999 -999 -999 -999 -999 -999 -999 -999 -999 -999 -999 -999 -999 -999 -999 -999 -999 -999 -999 -999 -999 -999 -999 -999 -999 -999 -999 -999 -999 -999 -999 -999 -999 -999 -999 -999 -999 -999 -999 -999 -999 -999 -999 -999 -999 -999 -999 -999 -999 -999 -999 -999 -999 -999 -999 -999 -999 -999 -999 -999 -999 -999 -999 -999 -999 -999 -999 -999 -999 -999 -999 -999 -999 -999 -999 -999 -999 -999 -999 -999 -999 -999 -999 -999 -999 -999 -999 -999 -999 -999 -999 -999 -999 -999 -999 -999 -999 -999 -999 -999 -999 -999 -999 -999 -999 -999 -999 -999 -999 -999 -999 -999 -999 -999 -999 -999 -999 -999 -999 -999 -999 -999 -999 -999 -999 -999 -999 -999 -999 -999 -999 -999 -999 -999 -999 -999 -999 -999 41.013 40.86 40.582 40.471 40.225 39.916 39.518 39.029 36.682 32.697 31.771 31.502 31.39 31.212 30.926 30.811 27.953 30.751 30.365 30.549 29.194 29.294 29.537 29.59 28.924 27.512 28.382 27.837 29.502 29.353 29.407 29.433 29.549 29.405 28.998 28.765 28.584 28.431 28.323 28.264 28.076 27.672 27.621 27.861 27.76 27.518 27.502 27.449 27.409 27.094 26.784 26.81 26.64 26.536 26.522 26.417 26.317 26.229 26.063 25.85 25.611 25.544 25.6 25.457 25.47 25.388 25.481 25.45 25.613 25.822 25.87 25.749 25.689 25.486 25.567 25.89 26.184 25.502 25.2 26.034 23.972 25.667 25.804 25.697 25.429 25.218 25.06 24.919 24.852 24.871 24.848 24.594 24.887 24.678 24.473 24.229 24.197 24.136 24.068 23.926 23.662 23.514 23.399 23.554 23.186 22.542 17.975 21.802 22.551 22.45 22.43 22.209 22.455 22.513 22.974 23.83 22.972 23.063 24.975 25.043 24.119 23.188 21.831 21.305 20.199 19.552 19.415 19.402 19.053 18.382 16.099 18.334 18.047 17.907 17.821 17.731 17.721 17.816 17.896 16.416 17.429 17.093 16.969 16.854 16.636 16.338 16.036 15.529 15.802 16.8 16.812 17.844 20.146 21.299 18.03 18.764 20.273 22.859 20.833 19.905 19.756 19.857 20.422 20.257 18.931 17.239 15.589 13.354 13.231 14.667 15.532 12.87 14.017 14.529 14.541 12.593 13.441 14.717 14.8 13.919 13.8 13.622 13.343 13.52 13.558 13.432 13.295 13.641 13.512 13.668 13.24 13.355 13.857 14.168 14.28 14.162 14.086 13.889 13.474 13.724 13.718 13.745 16.073 17.547 17.752 16.989 15.314 12.073 11.625 11.395 11.519 11.88 12.036 11.907 11.369 11.413 11.721 11.754 11.455 11.7 12.848 14.374 15.676 17.273 18.382 18.86 18.71 18.307 17.77 17.138 16.552 16.755 16.696 16.881 17.089 17.337 17.892 18.22 18.351 18.358 18.43 17.825 17.042 13.278 10.647 9.54 8.290999 8.321 9.085 12.995 16.808 17.874 15.923 13.6 10.237 9.724 9.672 9.297999 9.021 8.335999 7.691999 6.735 6.472 10.024 9.710999 8.8 6.457 5.71 5.008 4.737 3.29 3.517 3.847 3.733 3.394 3.65 6.365 7.921 9.248 9.354 8.353 7.237 6.119 4.616 3.757 2.915 3.378 5 6.568 6.768 6.526999 6.344 5.373 4.793 4.783 4.762 4.527 4.391 4.128 3.988 3.925 3.867 3.793 3.796 3.953 3.975 3.975 4.175 4.443 4.829 5.041 4.764 3.757 3.586 3.524 3.531 3.457 3.613 3.756 3.974 3.589 3.767 3.866 3.26 5.187 4.426 4.713 4.494 4.693 4.966 5.611 5.088 4.038 2.507 2.551 2.398 2.534 2.739 2.767 2.838 2.769 2.951 2.95 2.809 2.38 2.436 2.508 3.065 3.168 4.006 6.241 10.229 11.911 12.052 12.084 -999 -999 -999 -999 -999 -999
-999 -999 -999 -999 -999 -999 -999 -999 -999 -999 -999 -999 -999 -999 -999 -999 -999 -999 -999 -999 -999 -999 -999 -999 -999 -999 -999 -999 -999 -999 -999 -999 -999 -999 -999 -999 -999 -999 -999 -999 -999 -999 -999 -999 -999 -999 -999 -999 -999 -999 -999 -999 -999 -999 -999 -999 -999 -999 -999 -999 -999 -999 -999 -999 -999 -999 -999 -999 -999 -999 -999 -999 -999 -999 -999 -999 -999 -999 -999 -999 -999 -999 -999 -999 -999 -999 -999 -999 -999 -999 -999 -999 -999 -999 -999 -999 -999 -999 -999 -999 -999 -999 -999 -999 -999 -999 -999 -999 -999 -999 -999 -999 -999 -999 -999 -999 -999 -999 -999 -999 -999 -999 -999 -999 -999 -999 -999 -999 -999 -999 -999 -999 -999 -999 -999 -999 -999 -999 -999 -999 -999 -999 -999 -999 -999 -999 -999 -999 -999 -999 -999 -999 -999 -999 -999 -999 -999 -999 -999 -999 -999 -999 -999 -999 -999 -999 -999 -999 -999 -999 -999 -999 -999 -999 -999 -999 -999 -999 -999 -999 -999 -999 -999 -999 -999 -999 -999 -999 -999 -999 -999 -999 -999 -999 -999 -999 41.232 41.054 40.909 40.782 40.621 40.176 39.762 38.505 38.247 37.041 32.657 31.894 31.76 31.723 31.44 31.112 29.348 30.526 31.134 31.013 30.57 30.405 30.072 29.97 30.05 29.977 30.096 29.954 29.476 29.401 29.583 29.723 29.956 30.426 30.548 29.733 29.178 28.793 28.694 28.325 28.369 28.422 28.318 27.667 27.963 27.997 27.881 27.939 27.801 27.599 27.073 26.813 26.784 26.579 26.386 26.364 26.257 26.245 26.106 25.932 25.914 25.751 25.814 25.859 25.94 25.602 25.325 25.667 25.587 25.737 25.707 25.713 25.322 25.36 25.499 26.452 26.913 26.749 25.415 25.526 26.007 25.44 23.803 25.599 25.564 25.442 25.248 25.069 24.912 24.732 24.701 24.741 24.594 24.604 24.329 24.511 24.192 24.261 24.243 24.173 24.007 23.787 23.752 23.557 23.468 23.156 22.467 19.913 17.873 22.153 22.075 21.919 21.616 21.164 21.266 21.602 21.785 21.489 21.789 23.068 24.537 23.284 22.217 20.706 20.019 19.476 19.041 19.192 19.397 16.719 16.798 18.134 18.039 18.065 17.864 17.537 17.455 17.502 17.479 17.304 16.782 17.02 16.955 16.896 16.876 16.706 16.642 16.666 16.426 15.203 16.402 16.588 16.846 16.79 17.628 16.598 17.281 19.734 21.48 18.902 17.897 17.782 17.496 17.208 17.261 16.17 14.677 13.492 15.179 14.84 14.648 14.857 14.696 14.04 13.028 13.154 14.347 14.589 14.9 14.674 15.193 14.062 13.824 13.773 13.827 13.976 13.867 13.99 14.472 14.503 14.563 14.694 14.746 15.354 16.124 16.374 15.903 15.097 14.874 14.625 14.075 14.815 16.099 17.515 17.873 17.439 15.674 12.934 11.927 11.626 11.533 11.61 11.617 11.798 12.359 12.979 13.572 13.876 13.193 12.882 12.74 13.559 14.82 15.893 17.373 18.627 18.964 18.396 17.991 17.973 17.54 16.853 16.816 16.929 16.57 16.591 17.047 17.244 17.496 17.623 17.523 17.335 15.392 13.054 9.334 8.53 7.809999 7.625 7.782 7.94 10.092 15.66 17.431 15.724 13.705 10.192 9.417 9.03 8.538 8.396 7.710999 6.926 6.866 6.481999 6.401999 8.8 8.8 3.837 4.622 4.907 4.069 4.537 4.836 5.241 5.34 5.252 4.8 3.761 3.393 3.321 3.501 3.3 3.288 3.249 3.127 4.992 6.436 6.467999 6.585 6.571 6.485 6 5.105 5.034 4.976 4.839 4.605 4.48 4.366 4.196 4.104 4.002 3.868 3.758 3.736 3.781 3.803 3.977 3.991 4.387 4.66 4.791 4.435 3.668 3.63 3.563 3.495 3.185 3.128 3.452 3.463 4.587 5.633 4.343 4.646 4.451 4.684 5.316 5.75 4.404 4.127 4.903 4.638 2.015 2.608 2.613 2.517 2.538 2.648 2.83 2.29 2.658 2.639 2.557 2.693 2.537 2.739 3.166 4.216 4.568 6.577 9.977 11.261 11.961 12.151 12.166 -999 -999 -999 -999 -999 -999
-999 -999 -999 -999 -999 -999 -999 -999 -999 -999 -999 -999 -999 -999 -999 -999 -999 -999 -999 -999 -999 -999 -999 -999 -999 -999 -999 -999 -999 -999 -999 -999 -999 -999 -999 -999 -999 -999 -999 -999 -999 -999 -999 -999 -999 -999 -999 -999 -999 -999 -999 -999 -999 -999 -999 -999 -999 -999 -999 -999 -999 -999 -999 -999 -999 -999 -999 -999 -999 -999 -999 -999 -999 -999 -999 -999 -999 -999 -999 -999 -999 -999 -999 -999 -999 -999 -999 -999 -999 -999 -999 -999 -999 -999 -999 -999 -999 -999 -999 -999 -999 -999 -999 -999 -999 -999 -999 -999 -999 -999 -999 -999 -999 -999 -999 -999 -999 -999 -999 -999 -999 -999 -999 -999 -999 -999 -999 -999 -999 -999 -999 -999 -999 -999 -999 -999 -999 -999 -999 -999 -999 -999 -999 -999 -999 -999 -999 -999 -999 -999 -999 -999 -999 -999 -999 -999 -999 -999 -999 -999 -999 -999 -999 -999 -999 -999 -999 -999 -999 -999 -999 -999 -999 -999 -999 -999 -999 -999 -999 -999 -999 -999 -999 -999 -999 -999 -999 -999 -999 -999 -999 -999 -999 -999 -999 -999 41.265 41.124 40.962 40.799 40.523 40.166 39.66 37.786 35.157 34.313 32.264 31.854 31.752 31.718 31.473 30.863 29.394 31.282 31.709 31.374 30.727 30.392 30.115 30.067 30.001 29.869 29.864 30.028 30.049 30.405 30.982 31.725 33.833 34.442 34.147 32.121 30.401 29.086 28.933 28.719 29.195 30.411 30.945 30.584 29.373 28.397 28.026 28.314 28.307 28.122 27.446 26.397 26.742 26.578 26.414 26.352 26.329 26.249 26.188 26.091 26.182 26.971 28.171 27.907 27.736 27.716 26.988 25.985 25.689 25.894 25.646 26.041 26.564 26.411 25.981 26.56 26.849 26.337 25.461 25.462 25.381 25.864 25.492 23.754 25.564 25.449 25.279 25.095 24.977 24.823 24.776 24.794 24.715 24.553 24.689 24.335 24.47 24.257 24.314 24.288 24.239 24.085 23.899 23.709 23.443 23.18 22.639 22.225 18.202 20.494 21.81 21.753 21.368 20.375 20.18 20.828 20.547 21.013 21.233 21.338 21.802 22.918 21.859 20.343 19.459 19.149 18.999 16.414 16.793 18.327 18.392 18.304 18.204 18.175 18.034 17.922 17.724 17.54 17.46 17.413 17.537 16.459 15.389 17.046 17.144 17.324 17.607 15.156 15.427 16.725 14.734 16.2 16.259 15.766 15.516 15.505 15.861 16.758 16.546 17.007 16.067 16.47 16.302 15.966 15.553 14.147 14.823 15.592 15.261 14.885 14.736 14.677 14.564 14.356 14.294 14.274 14.413 14.501 14.594 14.444 14.863 15.076 14.759 14.765 15.042 15.184 15.298 14.97 15.002 15.128 15.437 16.74 17.38 17.823 18.497 18.916 18.353 17.091 16.888 16.072 15.879 17.525 17.695 17.625 17.778 15.765 13.32 12.121 11.676 11.809 11.737 11.77 11.951 12.164 13.872 15.582 15.551 14.954 14.129 13.286 12.928 13.442 14.635 15.47 16.815 17.513 18.134 18.113 17.893 17.619 17.42 17.032 16.984 17.059 16.784 16.592 16.481 16.405 16.782 16.523 16.113 14.366 12.557 9.217999 8.643 7.94 7.562 7.378 7.441 7.722 8.408 14.371 16.236 15.044 12.103 9.484 9.073999 8.87 8.886 8.011 7.373 7.072 7.106999 6.834 6.453 6.137 8.8 8.8 4.61 4.508 6.57 8.217999 8.469 8.474 8.429 6.946 7.488999 6.51 5.887 8.059 8.815 8.000999 7.58 8.038 7.636 7.059 7.097 6.946 6.454 5.703 5.015 5.016 4.845 4.855 4.639 4.627 4.464 4.423 4.335 4.176 4.054 4.07 4.062 3.887 3.599 3.649 3.668 3.854 3.847 4.571 4.476 4.688 4.254 3.673 3.61 3.601 3.668 3.758 3.426 4.326 3.921 5.178 3.595 3.905 4.776 4.801 4.901 4.996 5.526 4.519 4.135 3.763 3.435 2.457 2.52 2.586 2.592 2.569 2.86 2.945 2.897 2.446 2.614 2.658 2.81 3.04 4.348 5.199 5.652 8.082 10.911 12.136 12.539 12.452 12.367 12.243 -999 -999 -999 -999 -999 -999
-999 -999 -999 -999 -999 -999 -999 -999 -999 -999 -999 -999 -999 -999 -999 -999 -999 -999 -999 -999 -999 -999 -999 -999 -999 -999 -999 -999 -999 -999 -999 -999 -999 -999 -999 -999 -999 -999 -999 -999 -999 -999 -999 -999 -999 -999 -999 -999 -999 -999 -999 -999 -999 -999 -999 -999 -999 -999 -999 -999 -999 -999 -999 -999 -999 -999 -999 -999 -999 -999 -999 -999 -999 -999 -999 -999 -999 -999 -999 -999 -999 -999 -999 -999 -999 -999 -999 -999 -999 -999 -999 -999 -999 -999 -999 -999 -999 -999 -999 -999 -999 -999 -999 -999 -999 -999 -999 -999 -999 -999 -999 -999 -999 -999 -999 -999 -999 -999 -999 -999 -999 -999 -999 -999 -999 -999 -999 -999 -999 -999 -999 -999 -999 -999 -999 -999 -999 -999 -999 -999 -999 -999 -999 -999 -999 -999 -999 -999 -999 -999 -999 -999 -999 -999 -999 -999 -999 -999 -999 -999 -999 -999 -999 -999 -999 -999 -999 -999 -999 -999 -999 -999 -999 -999 -999 -999 -999 -999 -999 -999 -999 -999 -999 -999 -999 -999 -999 -999 -999 -999 -999 -999 -999 -999 -999 -999 41.407 41.161 41.041 40.754 40.469 40.071 39.72 39.162 36.714 32.672 31.52 31.556 31.468 31.059 31.281 30.605 31.363 32.36 32.922 32.028 31.214 30.607 30.204 30.09 29.967 29.929 29.915 30.713 31.735 32.54 33.704 35.196 35.515 35.781 35.953 34.608 32.4 30.396 30.223 29.998 30.913 33.146 34.172 34.013 33.122 31.512 29.547 29.535 29.426 29.776 28.454 27.301 27.185 27.243 26.544 26.383 26.394 26.309 26.284 26.215 26.522 28.97 31.304 30.922 29.776 31.577 30.548 27.628 26.736 26.308 26.509 27.494 28.008 27.2 27.996 29.009 27.903 26.346 26.593 26.21 25.377 25.455 25.715 25.64 24.165 25.501 25.312 25.077 24.804 24.56 24.554 24.638 24.584 24.434 24.451 24.459 24.423 24.342 24.279 23.685 24.588 24.512 24.324 23.965 23.646 23.242 22.865 22.768 19.728 17.665 19.69 19.933 19.365 19.299 19.924 20.103 19.724 20.079 19.503 19.128 19.874 20.526 19.892 19.067 18.415 18.684 16.327 18.558 18.649 18.595 18.575 18.448 18.353 18.309 18.14 17.999 17.832 17.407 17.346 17.553 17.766 17.508 17.403 16.568 15.82 15.854 16.746 17.534 17.079 16.795 15.581 15.17 15.577 14.872 13.977 14.032 13.704 15.112 15.164 15.458 15.452 15.496 14.835 13.939 13.356 14.887 15.098 15.214 15.032 14.956 14.634 14.439 14.499 14.409 14.34 14.413 14.549 14.572 14.326 14.498 14.95 15.093 15.963 17.655 18.668 19.882 19.076 16.034 15.836 16.836 17.912 19.198 19.971 20.141 20.68 20.906 19.434 18.567 17.564 17.436 17.691 17.795 17.71 16.473 15.583 14.367 12.671 12.023 11.89 12.052 12.789 12.834 13.073 13.976 16.514 16.588 15.92 15.291 14.035 14.015 13.755 13.468 13.73 14.886 16.965 17.523 17.766 17.821 17.821 17.47 17.274 16.936 16.753 16.671 16.47 16.256 15.704 15.173 14.214 14.442 13.176 11.741 10.124 8.552999 8.082 7.674 7.466 7.3 7.292 7.393 7.714 10.624 14.239 13.669 10.663 9.356999 8.879 8.539 8.201 7.443 6.901999 6.932 7.012 7.002 6.734 4.525 8.8 8.8 8.8 8.406 8.377 8.579 8.572 8.712999 8.558 8.431 8.348 8.385 8.437 8.676 8.764 7.835 6.974 7.120999 6.635 5.95 6.459 6.363999 5.263 4.996 4.781 4.841 4.832 4.623 4.469 4.555 4.299 4.301 4.254 4.135 4.059 4.05 4.001 3.831 3.652 3.613 3.518 3.701 3.925 3.912 3.746 3.814 4.042 3.763 3.59 3.53 3.492 3.329 5.703 5.829 4.473 5.033 3.468 3.269 3.752 4.571 4.975 4.789 4.647 4.774 4.233 3.724 2.078 2.718 2.707 2.65 2.631 2.716 2.834 2.817 2.698 2.44 2.732 2.895 3.037 5.84 10.523 11.012 8.514 11.342 11.965 12.501 12.723 12.498 12.713 12.423 -999 -999 -999 -999 -999 -999
-999 -999 -999 -999 -999 -999 -999 -999 -999 -999 -999 -999 -999 -999 -999 -999 -999 -999 -999 -999 -999 -999 -999 -999 -999 -999 -999 -999 -999 -999 -999 -999 -999 -999 -999 -999 -999 -999 -999 -999 -999 -999 -999 -999 -999 -999 -999 -999 -999 -999 -999 -999 -999 -999 -999 -999 -999 -999 -999 -999 -999 -999 -999 -999 -999 -999 -999 -999 -999 -999 -999 -999 -999 -999 -999 -999 -999 -999 -999 -999 -999 -999 -999 -999 -999 -999 -999 -999 -999 -999 -999 -999 -999 -999 -999 -999 -999 -999 -999 -999 -999 -999 -999 -999 -999 -999 -999 -999 -999 -999 -999 -999 -999 -999 -999 -999 -999 -999 -999 -999 -999 -999 -999 -999 -999 -999 -999 -999 -999 -999 -999 -999 -999 -999 -999 -999 -999 -999 -999 -999 -999 -999 -999 -999 -999 -999 -999 -999 -999 -999 -999 -999 -999 -999 -999 -999 -999 -999 -999 -999 -999 -999 -999 -999 -999 -999 -999 -999 -999 -999 -999 -999 -999 -999 -999 -999 -999 -999 -999 -999 -999 -999 -999 -999 -999 -999 -999 -999 -999 -999 -999 -999 -999 -999 -999 -999 41.136 41.075 40.962 40.774 40.424 39.814 39.55 37.719 33.515 32.067 31.778 32.009 31.877 31.724 31.67 31.245 30.433 32.865 33.826 33.287 32.68 31.151 30.335 30.213 30.055 30.112 30.282 31.538 34.197 35.021 35.69 36.224 36.842 36.588 36.393 35.988 34.065 32.318 33.434 33.873 34.134 35.13 35.584 35.327 34.784 34.479 32.917 33.856 33.937 34.37 32.474 30.25 29.192 28.989 28.244 27.269 26.998 26.382 26.375 26.932 27.958 30.189 32.1 32.699 31.796 32.394 32.184 30.078 29.927 30.82 29.702 28.943 30.206 29.331 28.544 29.985 30.167 29.883 29.993 27.734 26.509 25.618 25.509 26.165 26.1 24.475 25.41 25.085 24.703 24.308 24.394 24.514 24.432 24.411 24.472 24.523 24.656 24.506 23.982 24.291 24.212 24.322 24.406 23.825 23.734 23.302 22.867 22.654 22.298 20.755 17.613 18.32 18.468 17.496 17.283 17.335 17.166 17.168 16.986 16.92 16.695 18.379 19.343 18.76 18.101 16.615 18.97 18.907 18.658 18.768 18.807 18.65 18.498 18.381 18.204 18.015 17.918 17.506 17.389 17.325 17.354 17.33 17.425 17.401 16.927 17.117 17.08 16.892 16.773 16.535 16.584 15.478 14.927 16.081 15.677 15.418 15.431 15.372 14.202 14.095 14.678 15.853 16.029 15.28 15.663 15.275 15.1 15.034 14.93 14.917 14.507 14.471 14.59 14.547 14.477 14.544 14.749 14.873 14.54 14.902 15.465 19.421 20.944 20.668 20.982 20.417 19.038 18.552 18.424 19.044 20.883 21.368 20.892 20.508 20.337 20.483 19.563 19.225 19.32 18.853 17.564 16.204 14.735 13.627 13.148 12.749 12.58 12.462 12.281 14.277 15.411 15.548 14.504 16.232 17.145 17.601 16.46 15.831 15.875 15.852 14.949 14.214 13.993 15.045 16.29 16.936 17.153 17.416 17.564 17.364 17.298 16.89 16.685 16.568 16.573 16.157 15.133 14.463 13.534 13.119 12.078 10.732 8.924 7.993 7.462 7.45 7.363 7.250999 7.116 7.011 6.955999 7.797999 8.786 11.266 11.266 9.307 8.635 8.177 7.526 7.095 6.804999 6.61 7.247 4.661 4.882 5.416 5.766 8.8 8.8 7.887 8.99 8.491 8.679 8.8 8.684999 8.372 8.358 8.445 8.582 8.191999 7.602 6.061 5.95 5.805 5.496 5.28 5.573 5.331 5.074 4.955 4.766 4.794 4.841 4.73 4.943 4.781 4.828 4.484 4.251 4.148 4.072 4.062 4.037 4.045 3.933 3.866 3.71 3.826 3.788 3.774 3.772 3.798 4.33 3.648 3.449 3.359 3.243 3.152 3.289 5.806 5.868 5.797 6.58 3.183 2.853 3.201 4.912 4.588 4.82 5.142 3.227 2.811 2.463 2.434 2.544 2.645 2.646 2.629 2.88 2.672 2.744 2.811 2.791 2.948 3.494 7.058 11.401 12.241 12.159 12.164 12.392 12.644 12.933 12.804 13.001 12.622 -999 -999 -999 -999 -999 -999
-999 -999 -999 -999 -999 -999 -999 -999 -999 -999 -999 -999 -999 -999 -999 -999 -999 -999 -999 -999 -999 -999 -999 -999 -999 -999 -999 -999 -999 -999 -999 -999 -999 -999 -999 -999 -999 -999 -999 -999 -999 -999 -999 -999 -999 -999 -999 -999 -999 -999 -999 -999 -999 -999 -999 -999 -999 -999 -999 -999 -999 -999 -999 -999 -999 -999 -999 -999 -999 -999 -999 -999 -999 -999 -999 -999 -999 -999 -999 -999 -999 -999 -999 -999 -999 -999 -999 -999 -999 -999 -999 -999 -999 -999 -999 -999 -999 -999 -999 -999 -999 -999 -999 -999 -999 -999 -999 -999 -999 -999 -999 -999 -999 -999 -999 -999 -999 -999 -999 -999 -999 -999 -999 -999 -999 -999 -999 -999 -999 -999 -999 -999 -999 -999 -999 -999 -999 -999 -999 -999 -999 -999 -999 -999 -999 -999 -999 -999 -999 -999 -999 -999 -999 -999 -999 -999 -999 -999 -999 -999 -999 -999 -999 -999 -999 -999 -999 -999 -999 -999 -999 -999 -999 -999 -999 -999 -999 -999 -999 -999 -999 -999 -999 -999 -999 -999 -999 -999 -999 -999 -999 -999 -999 -999 -999 -999 40.631 40.467 40.973 40.798 40.269 39.829 39.475 36.397 32.661 31.773 32.241 32.368 31.98 31.782 31.677 31.488 29.604 33.245 34.724 34.835 34.446 32.834 31.458 30.866 30.507 30.304 30.698 31.705 35.269 36.612 36.762 36.705 36.722 36.56 36.299 36.121 33.92 34.031 35.315 35.489 35.325 35.599 35.8 35.733 35.547 35.268 35.019 34.955 34.942 34.872 34.418 33.971 33.353 33.516 31.521 28.83 28.256 27.916 27.663 28.781 30.167 30.704 32.133 33.036 32.996 32.907 32.9 32.474 32.57 32.875 32.057 30.874 31.53 31.26 29.544 30.447 31.081 31.15 30.317 28.317 26.147 26.538 27.031 27.527 28.798 26.337 23.93 25.129 24.742 24.509 24.476 24.457 24.388 24.416 24.414 24.399 24.44 24.443 24.424 24.044 23.974 24.08 23.87 24.188 23.395 23.244 22.822 22.516 22.422 22.461 22.36 20.98 19.75 20.866 20.571 20.175 20.573 20.362 20.67 20.342 19.337 17.459 17.285 17.221 19.116 19.379 19.236 19.064 18.947 18.965 18.853 18.794 18.651 18.462 18.285 18.089 18.006 17.772 17.556 17.304 17.282 17.283 17.317 17.289 17.046 16.739 16.707 16.497 16.552 16.466 16.456 16.362 16.206 16.054 15.696 15.552 15.582 15.665 15.681 15.713 15.812 15.871 15.9 15.459 15.385 15.165 15.008 14.905 14.795 14.917 14.703 14.755 14.649 14.693 14.51 14.524 14.859 15.258 15.215 15.725 19.092 22.261 22.418 22.057 21.916 21.231 20.751 20.377 20.369 20.926 21.824 21.616 21.227 20.797 20.648 20.467 20.536 20.456 20.186 19.272 16.739 13.724 13.17 13.136 13.031 12.819 12.935 13.255 14.468 16.938 17.084 17.053 17.725 17.892 17.82 17.718 17.109 16.769 16.962 17.386 16.503 15.026 14.451 15.064 15.75 16.202 17.24 17.614 17.58 17.679 17.411 17.108 16.729 16.412 16.126 15.444 14.395 13.739 12.892 12.124 11.308 10.136 8.526999 7.464 7.587 7.426 7.287 7.179 7.083 6.888 6.931 6.967 7.61 9.976 10.595 9.797999 8.53 7.584 7.227 6.948 6.82 7.139 4.504 5.687 7.646999 6.931 6.679 8.8 8.639999 8.273 8.769 8.466 8.487 8.763 8.976 8.882 8.504 8.403 8.797999 8.558 6.37 5.509 5.328 5.356 5.526 5.355 5.321 5.123 5.023 4.917 4.786 4.793 4.693 4.851 4.78 4.652 4.455 4.31 4.215 4.11 4.031 4.021 4.052 4.126 3.798 3.564 4.207 3.776 3.624 3.541 3.58 3.673 3.653 3.41 3.54 3.086 2.858 3.017 3.299 4.857 5.622 6.654 5.411 3.54 3.499 5.095 5.447 5.761 5.594 5.66 3.535 2.189 2.622 2.537 2.75 2.7 2.757 2.651 3.038 2.92 3 3.102 2.903 3.095 3.628 5.596 11.143 12.402 12.702 12.639 12.739 12.631 12.902 13.013 12.853 12.6 -999 -999 -999 -999 -999 -999
-999 -999 -999 -999 -999 -999 -999 -999 -999 -999 -999 -999 -999 -999 -999 -999 -999 -999 -999 -999 -999 -999 -999 -999 -999 -999 -999 -999 -999 -999 -999 -999 -999 -999 -999 -999 -999 -999 -999 -999 -999 -999 -999 -999 -999 -999 -999 -999 -999 -999 -999 -999 -999 -999 -999 -999 -999 -999 -999 -999 -999 -999 -999 -999 -999 -999 -999 -999 -999 -999 -999 -999 -999 -999 -999 -999 -999 -999 -999 -999 -999 -999 -999 -999 -999 -999 -999 -999 -999 -999 -999 -999 -999 -999 -999 -999 -999 -999 -999 -999 -999 -999 -999 -999 -999 -999 -999 -999 -999 -999 -999 -999 -999 -999 -999 -999 -999 -999 -999 -999 -999 -999 -999 -999 -999 -999 -999 -999 -999 -999 -999 -999 -999 -999 -999 -999 -999 -999 -999 -999 -999 -999 -999 -999 -999 -999 -999 -999 -999 -999 -999 -999 -999 -999 -999 -999 -999 -999 -999 -999 -999 -999 -999 -999 -999 -999 -999 -999 -999 -999 -999 -999 -999 -999 -999 -999 -999 -999 -999 -999 -999 -999 -999 -999 -999 -999 -999 -999 -999 -999 -999 -999 -999 -999 -999 -999 38.808 40.179 40.426 40.142 39.031 35.158 34.442 33.452 32.372 32.513 32.638 32.409 30.223 29.888 29.617 29.719 32.144 34.614 36.26 36.541 36.241 34.481 32.626 31.604 31.193 31.354 31.754 32.656 35.848 36.777 37.067 36.89 36.727 36.655 36.366 35.618 34.796 35.601 35.854 36.012 35.781 35.833 35.957 35.939 35.996 35.643 35.465 35.343 35.201 35.086 34.992 34.738 34.793 34.754 33.995 30.925 29.91 30.574 31.017 33.381 33.066 32.19 32.776 33.487 33.2 32.93 32.842 32.686 32.65 32.64 32.038 31.805 31.994 31.88 31.667 31.032 31.623 31.586 29.889 28.857 -999 27.975 29.233 29.642 30.035 31.366 26.676 24.487 25.079 24.845 24.728 24.5 24.381 24.398 24.393 24.393 24.439 24.363 24.16 23.913 23.753 23.449 23.806 24.045 24.144 23.438 22.937 22.691 22.646 22.606 22.243 21.918 21.809 21.441 21.327 20.722 20.86 20.809 20.739 20.162 19.966 19.951 19.946 20.05 19.762 19.785 19.566 19.252 19.102 19.035 18.979 18.859 18.716 18.536 18.336 18.151 18.062 17.894 17.697 17.376 17.273 17.239 17.18 17.119 17.034 16.799 16.699 16.634 16.545 16.657 16.51 16.414 16.278 16.099 15.853 15.731 15.716 15.552 15.512 15.338 15.382 15.521 15.528 15.57 15.346 15.187 15.039 14.958 14.897 14.972 14.803 14.773 14.742 14.774 14.776 14.946 15.376 15.78 15.966 16.841 22.081 22.988 22.894 22.939 22.569 22.177 21.81 21.622 21.77 21.718 21.883 21.646 21.317 21.163 20.826 20.393 20.845 20.62 19.722 17.79 14.153 13.163 13.046 12.993 12.89 13.494 15.815 16.112 17.269 18.651 18.098 18.403 18.655 19.051 18.009 17.564 17.305 17.107 17.723 17.879 17.044 15.654 14.778 15.334 16.056 16.947 17.436 17.67 17.716 17.384 17.607 17.278 16.883 16.376 15.524 14.751 13.615 12.52 11.753 11.433 10.948 9.36 8.183 7.598 7.526999 7.296 7.209 7.092999 7.071 6.881 6.959 6.697 6.809 7.389 10.062 8.87 7.703 7.257 7.018 6.941999 4.76 4.766 6.297999 6.834 7.084 6.495999 6.500999 6.332 7.353 8.594 7.355 8.717999 8.566999 8.818 8.536 8.54 8.84 8.532 8.554999 8.172999 6.12 5.537 5.805 5.673 5.311 5.248 5.211 5.116 5.018 4.908 4.707 4.717 4.446 4.41 4.494 4.401 4.233 4.184 4.103 4.038 3.964 3.922 3.875 3.547 4.064 8.226 10.985 7.584 5.146 4.442 3.907 3.596 3.126 3.616 3.716 3.062 3.084 2.991 3.884 3.956 4.641 4.67 4.197 3.166 3.572 5.078 5.356 5.749 6.112 6.047 3.297 2.692 2.625 2.629 2.847 3 2.924 2.783 3.482 3.094 3.117 3.275 3.142 3.225 3.517 4.681 10.153 12.481 13.119 12.911 12.779 12.914 12.538 12.601 12.604 12.492 -999 -999 -999 -999 -999 -999
-999 -999 -999 -999 -999 -999 -999 -999 -999 -999 -999 -999 -999 -999 -999 -999 -999 -999 -999 -999 -999 -999 -999 -999 -999 -999 -999 -999 -999 -999 -999 -999 -999 -999 -999 -999 -999 -999 -999 -999 -999 -999 -999 -999 -999 -999 -999 -999 -999 -999 -999 -999 -999 -999 -999 -999 -999 -999 -999 -999 -999 -999 -999 -999 -999 -999 -999 -999 -999 -999 -999 -999 -999 -999 -999 -999 -999 -999 -999 -999 -999 -999 -999 -999 -999 -999 -999 -999 -999 -999 -999 -999 -999 -999 -999 -999 -999 -999 -999 -999 -999 -999 -999 -999 -999 -999 -999 -999 -999 -999 -999 -999 -999 -999 -999 -999 -999 -999 -999 -999 -999 -999 -999 -999 -999 -999 -999 -999 -999 -999 -999 -999 -999 -999 -999 -999 -999 -999 -999 -999 -999 -999 -999 -999 -999 -999 -999 -999 -999 -999 -999 -999 -999 -999 -999 -999 -999 -999 -999 -999 -999 -999 -999 -999 -999 -999 -999 -999 -999 -999 -999 -999 -999 -999 -999 -999 -999 -999 -999 -999 -999 -999 -999 -999 -999 -999 -999 -999 -999 -999 -999 -999 -999 -999 -999 35.078 35.225 36.45 37.227 36.899 35.351 33.514 32.804 32.526 32.53 32.674 32.677 32.495 31.828 31.519 31.75 31.55 34.237 36.012 37.525 37.732 37.701 36.334 35.269 34.343 33.365 32.883 32.931 34.599 36.662 37.462 -999 -999 -999 -999 36.595 35.905 35.65 35.931 35.949 36.042 35.969 35.927 35.806 35.856 35.755 35.592 35.64 35.625 35.416 35.231 35.094 34.982 34.966 34.874 34.911 33.569 33.087 33.977 33.837 33.929 33.818 33.945 33.635 33.401 33.13 32.71 32.641 32.787 32.568 32.901 32.393 32.222 32.297 31.885 31.849 31.866 -999 -999 -999 -999 -999 -999 31.2 31.164 31.175 31.466 31.436 27.16 24.987 24.718 24.87 24.56 24.303 24.359 24.324 24.233 24.042 23.829 23.827 23.658 23.535 23.506 23.529 23.314 23.893 23.754 22.626 22.645 22.801 22.552 22.151 21.796 21.691 21.281 21.142 20.767 20.85 20.61 20.552 19.903 19.86 19.846 19.677 19.711 19.785 19.679 19.55 19.33 19.179 19.107 19.043 18.948 18.798 18.592 18.431 18.215 18.116 17.962 17.705 17.39 17.299 17.218 17.102 17.033 16.983 16.908 16.825 16.806 16.787 16.814 16.709 16.49 16.329 16.166 16.002 15.864 15.881 15.672 15.556 15.498 15.588 15.538 15.464 15.481 15.35 15.249 15.163 15.095 14.989 15.067 14.987 15.073 15.148 15.079 15.279 16.207 16.998 16.938 16.923 19.525 22.719 23.005 23.025 23.1 22.601 22.516 21.947 21.81 21.865 21.45 21.48 20.379 20.324 18.175 17.641 17.86 19.264 19.04 16.839 14.959 13.878 14.084 14.505 14.612 14.224 16.715 18.115 18.406 19.1 18.88 19.613 19.765 19.761 19.902 19.158 18.124 17.75 17.684 17.906 17.829 17.21 16.146 15.451 15.643 16.177 16.921 17.088 17.186 17.413 17.445 17.874 17.625 17.394 16.294 14.959 13.751 12.65 11.933 10.734 10.849 10.692 8.882999 8.099 7.907 7.544 7.345 7.217999 7.117 7.092999 7.017 6.866 6.818 6.823 6.929999 7.413 7.412 7.207 6.562 6.19 4.696 5.332 6.698 7.011 6.973 6.679999 6.642 6.505 6.175 6.086 8.526 8.604 7.594 8.453 8.71 8.540999 8.637 8.691 8.806 8.341 6.559 5.896 5.832 5.929 5.745 5.293 5.133 5.065 5.072 4.96 4.679 4.38 4.539 4.382 4.181 4.097 4.053 4.051 4.083 4.084 3.996 3.884 4.04 3.823 4.065 4.456 10.292 15.793 15.264 11.78 11.399 9.604 8.377 4.016 3.242 3.55 3.92 3.024 3.136 3.19 3.703 4.301 4.636 2.988 4.233 4.281 4.048 3.147 3.119 3.376 5.314 2.406 2.789 2.853 2.83 3.082 3.171 4.816 4.896 4.046 3.552 3.367 3.526 3.488 2.905 3.716 3.933 7.905 12.232 13.216 12.836 12.627 12.574 12.322 12.477 12.459 12.422 -999 -999 -999 -999 -999 -999
-999 -999 -999 -999 -999 -999 -999 -999 -999 -999 -999 -999 -999 -999 -999 -999 -999 -999 -999 -999 -999 -999 -999 -999 -999 -999 -999 -999 -999 -999 -999 -999 -999 -999 -999 -999 -999 -999 -999 -999 -999 -999 -999 -999 -999 -999 -999 -999 -999 -999 -999 -999 -999 -999 -999 -999 -999 -999 -999 -999 -999 -999 -999 -999 -999 -999 -999 -999 -999 -999 -999 -999 -999 -999 -999 -999 -999 -999 -999 -999 -999 -999 -999 -999 -999 -999 -999 -999 -999 -999 -999 -999 -999 -999 -999 -999 -999 -999 -999 -999 -999 -999 -999 -999 -999 -999 -999 -999 -999 -999 -999 -999 -999 -999 -999 -999 -999 -999 -999 -999 -999 -999 -999 -999 -999 -999 -999 -999 -999 -999 -999 -999 -999 -999 -999 -999 -999 -999 -999 -999 -999 -999 -999 -999 -999 -999 -999 -999 -999 -999 -999 -999 -999 -999 -999 -999 -999 -999 -999 -999 -999 -999 -999 -999 -999 -999 -999 -999 -999 -999 -999 -999 -999 -999 -999 -999 -999 -999 -999 -999 -999 -999 -999 -999 -999 -999 -999 -999 -999 -999 -999 -999 -999 -999 -999 34.198 34.021 33.745 34.151 33.875 33.329 33.089 32.88 31.871 31.06 31.47 30.246 30.324 30.163 32.507 32.268 31.964 32.13 35.057 37.689 38.003 37.961 37.593 37.367 36.495 35.928 35.516 35.766 36.503 37.231 -999 -999 -999 -999 -999 -999 -999 -999 -999 -999 -999 -999 36.014 35.986 35.923 35.961 35.712 35.575 35.599 35.737 35.378 35.208 35.066 34.984 35.052 34.83 34.563 34.464 34.679 34.643 34.158 34.016 33.792 33.573 33.536 33.223 33.036 32.964 32.732 32.71 32.599 32.503 -999 -999 -999 -999 -999 -999 -999 -999 -999 -999 -999 -999 31.745 31.391 31.536 31.357 31.105 28.35 25.692 24.204 25.01 24.571 24.412 24.216 24.076 23.838 23.55 23.48 23.425 23.428 23.409 23.402 23.321 22.734 23.658 23.778 22.146 22.633 22.414 22.023 21.743 21.484 21.152 20.96 20.54 20.502 20.603 20.388 20.034 19.838 19.543 19.454 19.557 19.731 19.648 19.494 19.348 19.176 19.106 19.028 19.012 18.805 18.68 18.449 18.26 18.113 17.971 17.695 17.491 17.385 17.273 17.104 16.973 16.971 16.946 16.911 16.874 16.856 17.018 17.016 16.51 16.368 16.234 16.103 15.984 15.809 15.761 15.863 15.561 15.414 15.459 15.408 15.427 15.371 15.313 15.28 15.22 15.173 15.191 15.246 15.353 15.557 15.815 16.413 18.686 20.383 19.398 19.321 22.653 23.039 23.056 22.836 22.819 22.462 22.15 21.74 21.63 20.585 18.485 17.476 16.929 16.18 15.681 15.744 15.478 15.917 15.499 14.936 14.002 14.371 15.776 17.896 18.45 17.362 18.846 19.655 20.354 20.398 20.041 20.23 20.313 20.123 19.957 19.191 18.033 17.545 17.133 16.439 15.389 15.751 16.047 15.827 15.994 16.324 16.722 17.096 17.358 17.378 17.587 17.785 17.767 17.406 16.426 15.324 13.914 12.662 11.199 9.958 9.993999 10.076 8.250999 7.684 7.608 7.434999 7.307 7.228 7.144 7.029 6.918 6.862 6.778 6.776999 6.731999 6.879 7.04 6.83 5.117 4.604 6.112 7.263 7.237 7.04 7 6.724 6.796 6.613999 6.355 6.027 6.595 8.993 8.709 8.289 8.403 8.675 8.587999 8.625 8.59 8.106999 6.444 5.848 5.709 5.645 5.386 5.17 5 4.72 5.002 4.795 4.496 4.357 4.355 4.308 4.135 4.035 4.061 4.006 4.077 3.957 3.949 3.713 3.725 3.68 3.681 4.25 9.654 16.124 16.728 16.656 16.223 15.801 14.586 8.559 4.021 3.173 3.89 3.436 3.034 2.778 3.111 4.102 2.639 2.75 4.188 4.365 5.333 5.437 5.823 2.817 2.554 2.745 2.919 2.95 2.701 3.094 3.776 10.636 10.016 7.269 5.415 3.628 3.882 3.71 3.421 3.718 3.714 4.828 10.926 12.293 12.591 12.457 12.283 12.121 12.106 12.204 12.292 -999 -999 -999 -999 -999 -999
-999 -999 -999 -999 -999 -999 -999 -999 -999 -999 -999 -999 -999 -999 -999 -999 -999 -999 -999 -999 -999 -999 -999 -999 -999 -999 -999 -999 -999 -999 -999 -999 -999 -999 -999 -999 -999 -999 -999 -999 -999 -999 -999 -999 -999 -999 -999 -999 -999 -999 -999 -999 -999 -999 -999 -999 -999 -999 -999 -999 -999 -999 -999 -999 -999 -999 -999 -999 -999 -999 -999 -999 -999 -999 -999 -999 -999 -999 -999 -999 -999 -999 -999 -999 -999 -999 -999 -999 -999 -999 -999 -999 -999 -999 -999 -999 -999 -999 -999 -999 -999 -999 -999 -999 -999 -999 -999 -999 -999 -999 -999 -999 -999 -999 -999 -999 -999 -999 -999 -999 -999 -999 -999 -999 -999 -999 -999 -999 -999 -999 -999 -999 -999 -999 -999 -999 -999 -999 -999 -999 -999 -999 -999 -999 -999 -999 -999 -999 -999 -999 -999 -999 -999 -999 -999 -999 -999 -999 -999 -999 -999 -999 -999 -999 -999 -999 -999 -999 -999 -999 -999 -999 -999 -999 -999 -999 -999 -999 -999 -999 -999 -999 -999 -999 -999 -999 -999 -999 -999 -999 -999 -999 -999 -999 -999 34.157 33.71 33.558 33.725 33.672 33.375 33.31 33.155 31.145 32.891 32.901 32.797 32.614 32.588 32.419 32.29 32.006 31.92 33.61 37.988 38.341 38.235 38.167 38.014 37.772 37.725 36.996 36.81 37.245 -999 -999 -999 -999 -999 -999 -999 -999 -999 -999 -999 -999 -999 -999 -999 -999 -999 -999 -999 -999 -999 35.307 35.145 35.032 34.911 34.841 34.863 34.806 34.713 34.886 34.381 34.151 33.992 33.798 33.622 33.406 33.24 33.137 -999 -999 -999 -999 -999 -999 -999 -999 -999 -999 -999 -999 -999 -999 -999 -999 -999 -999 31.682 31.171 30.949 30.914 30.533 29.948 26.049 22.809 24.628 24.364 24.087 23.887 23.613 23.331 23.063 23.111 23.207 23.217 23.245 23.235 23.249 23.354 23.485 23.209 22.229 22.534 21.896 21.702 21.382 21.144 21.07 20.952 20.931 20.691 20.349 20.034 19.801 19.559 19.481 19.508 19.619 19.495 19.401 19.298 19.148 19.11 19.058 19.001 18.876 18.7 18.521 18.328 18.156 18.02 17.825 17.659 17.612 17.31 17.065 16.912 16.894 16.871 16.816 16.817 16.635 16.639 16.66 16.515 16.405 16.295 16.185 16.135 15.918 15.795 15.717 15.585 15.397 15.451 15.435 15.456 15.393 15.462 15.456 15.393 15.323 15.334 15.421 15.62 15.861 16.687 17.468 20.733 21.192 21.562 23.015 23.256 23.343 22.921 22.305 21.553 21.348 21.332 20.068 18.937 17.682 17.169 16.744 16.351 16.299 16.145 16.411 15.212 14.958 14.745 14.776 14.759 16.68 18.285 19.551 19.84 19.41 20.077 20.318 20.444 20.784 20.781 20.743 20.589 20.359 19.976 19.288 18.178 14.816 13.681 12.438 12.066 12.367 14.727 15.699 16.524 16.762 17.006 17.324 17.643 17.435 17.292 17.376 17.379 16.897 16.52 15.666 15.329 13.734 11.404 9.881 9.688 9.573 8.302999 7.601 7.433 7.405 7.315 7.269 7.194 7.122 7.069 7.036 7.061 7.042 7.047999 6.774 6.694 5.067 4.754 6.498 7.005 7.321 7.187 6.945 6.776999 6.734 6.638 6.592 6.69 6.283999 6.321 6.993 9.234 8.395 8.557 8.606 8.717 8.886 8.224999 7.101 6.330999 5.847 5.633 5.595 5.27 4.982 4.889 4.675 4.544 4.88 4.835 4.483 4.363 4.422 4.078 4.1 4.028 3.897 4.161 4.105 4.005 3.746 4.081 4.013 3.997 4.87 9.205999 15.648 16.926 16.708 16.363 16.323 15.518 12.638 5.233 3.637 3.161 3.461 2.855 2.743 2.758 2.964 4.356 3.486 4.614 5.508 5.52 5.738 5.047 2.652 2.433 3.311 3.142 2.98 2.587 3.469 5.756 11.14 11.9 11.529 11.022 9.174 5.51 3.702 3.457 3.449 3.811 3.818 9.726 11.303 11.956 11.74 11.755 11.853 11.715 11.949 12.168 -999 -999 -999 -999 -999 -999
-999 -999 -999 -999 -999 -999 -999 -999 -999 -999 -999 -999 -999 -999 -999 -999 -999 -999 -999 -999 -999 -999 -999 -999 -999 -999 -999 -999 -999 -999 -999 -999 -999 -999 -999 -999 -999 -999 -999 -999 -999 -999 -999 -999 -999 -999 -999 -999 -999 -999 -999 -999 -999 -999 -999 -999 -999 -999 -999 -999 -999 -999 -999 -999 -999 -999 -999 -999 -999 -999 -999 -999 -999 -999 -999 -999 -999 -999 -999 -999 -999 -999 -999 -999 -999 -999 -999 -999 -999 -999 -999 -999 -999 -999 -999 -999 -999 -999 -999 -999 -999 -999 -999 -999 -999 -999 -999 -999 -999 -999 -999 -999 -999 -999 -999 -999 -999 -999 -999 -999 -999 -999 -999 -999 -999 -999 -999 -999 -999 -999 -999 -999 -999 -999 -999 -999 -999 -999 -999 -999 -999 -999 -999 -999 -999 -999 -999 -999 -999 -999 -999 -999 -999 -999 -999 -999 -999 -999 -999 -999 -999 -999 -999 -999 -999 -999 -999 -999 -999 -999 -999 -999 -999 -999 -999 -999 -999 -999 -999 -999 -999 -999 -999 -999 -999 -999 -999 -999 -999 -999 -999 -999 -999 -999 -999 34.132 33.928 33.955 33.7 33.564 33.55 33.428 33.206 30.722 33.036 32.838 32.646 32.652 32.523 32.392 32.273 32.121 32.101 32.646 36.683 38.671 38.515 38.771 38.31 38.047 37.987 37.727 -999 -999 -999 -999 -999 -999 -999 -999 -999 -999 -999 -999 -999 -999 -999 -999 -999 -999 -999 -999 -999 -999 -999 -999 -999 -999 -999 -999 -999 -999 34.553 34.496 34.269 34.044 33.888 -999 -999 -999 -999 -999 -999 -999 -999 -999 -999 -999 -999 -999 -999 -999 -999 -999 -999 -999 -999 -999 -999 -999 -999 31.1 30.781 30.424 29.996 29.321 27.926 26.119 21.602 24.257 23.925 23.719 23.414 23.109 22.78 22.994 23.09 23.046 23.111 23.158 23.177 23.156 23.092 23.182 23.311 22.312 22.189 21.73 21.325 20.998 20.85 20.776 20.886 20.614 20.288 20.005 19.726 19.64 19.566 19.537 19.602 19.505 19.391 19.255 19.101 19.018 18.983 18.946 18.89 18.787 18.626 18.446 18.21 18.038 17.839 17.6 17.539 17.335 17.1 17.011 16.907 16.87 16.816 16.82 16.686 16.634 16.601 16.495 16.407 16.32 16.228 16.1 15.93 15.76 15.705 15.634 15.703 15.579 15.504 15.521 15.549 15.714 15.811 15.66 15.563 15.469 15.492 15.809 18.068 20.604 21.531 22.212 23.584 23.805 23.833 23.4 23.175 22.835 21.904 20.867 19.795 19.286 18.726 17.493 17.398 17.729 18.203 18.673 19.706 19.335 18.567 16.629 16.788 16.442 15.055 14.655 17.22 18.797 20.421 21.231 20.919 20.754 20.67 20.967 20.801 20.66 20.479 20.814 20.762 19.886 18.785 15.593 13.078 12.05 11.245 11.17 11.091 12.457 14.993 16.157 17.158 17.064 16.606 16.616 16.508 16.315 16.412 16.569 16.218 15.917 15.461 14.973 14.454 12.312 9.672999 9.033999 8.425 7.787 7.524 7.394 7.385 7.334 7.315 7.289 7.236 7.235 7.226 7.341 7.368 7.356999 6.898 5.178 4.759 6.545 7.07 7.101 7.085 7.033 6.879 6.774 6.828 6.632999 6.459 6.413 6.285 6.358 6.663 8.504 9.564 7.7 8.382999 8.476 8.846 8.411 6.599 5.918 5.889 5.536 5.472 5.284 4.913 4.696 4.672 4.594 4.642 4.722 4.406 4.407 4.41 4.326 4.179 4.452 4.415 4.386 4.296 4.128 3.991 4.045 3.979 4.046 4.737 9.025 14.983 16.672 16.634 16.352 16.129 14.955 10.691 4.913 3.837 3.339 3.152 3.172 2.761 2.532 2.853 3.003 3.524 4.057 5.254 5.504 4.242 2.647 2.673 3.192 3.85 3.244 2.787 3.024 3.863 5.908 10.628 11.798 11.666 11.619 11.655 10.685 6.696 4.091 3.776 3.649 3.894 6.3 10.236 11.095 11.506 11.884 11.867 11.53 11.842 12.115 -999 -999 -999 -999 -999 -999
-999 -999 -999 -999 -999 -999 -999 -999 -999 -999 -999 -999 -999 -999 -999 -999 -999 -999 -999 -999 -999 -999 -999 -999 -999 -999 -999 -999 -999 -999 -999 -999 -999 -999 -999 -999 -999 -999 -999 -999 -999 -999 -999 -999 -999 -999 -999 -999 -999 -999 -999 -999 -999 -999 -999 -999 -999 -999 -999 -999 -999 -999 -999 -999 -999 -999 -999 -999 -999 -999 -999 -999 -999 -999 -999 -999 -999 -999 -999 -999 -999 -999 -999 -999 -999 -999 -999 -999 -999 -999 -999 -999 -999 -999 -999 -999 -999 -999 -999 -999 -999 -999 -999 -999 -999 -999 -999 -999 -999 -999 -999 -999 -999 -999 -999 -999 -999 -999 -999 -999 -999 -999 -999 -999 -999 -999 -999 -999 -999 -999 -999 -999 -999 -999 -999 -999 -999 -999 -999 -999 -999 -999 -999 -999 -999 -999 -999 -999 -999 -999 -999 -999 -999 -999 -999 -999 -999 -999 -999 -999 -999 -999 -999 -999 -999 -999 -999 -999 -999 -999 -999 -999 -999 -999 -999 -999 -999 -999 -999 -999 -999 -999 -999 -999 -999 -999 -999 -999 -999 -999 -999 -999 -999 -999 -999 34.325 34.114 32.553 32.325 31.878 31.358 32.688 31.709 33.117 33.166 32.976 32.878 32.76 32.636 32.569 32.54 32.582 32.619 32.84 37.234 38.629 38.779 38.773 38.354 37.954 37.932 -999 -999 -999 -999 -999 -999 -999 -999 -999 -999 -999 -999 -999 -999 -999 -999 -999 -999 -999 -999 -999 -999 -999 -999 -999 -999 -999 -999 -999 -999 -999 -999 -999 -999 -999 -999 -999 -999 -999 -999 -999 -999 -999 -999 -999 -999 -999 -999 -999 -999 -999 -999 -999 -999 -999 -999 -999 -999 -999 -999 -999 30.424 30.02 29.484 28.011 26.083 25.902 25.646 22.833 23.043 23.28 22.719 22.811 22.768 22.856 22.918 22.96 23.079 23.115 23.137 23.111 23.021 22.87 23.014 23.109 22.423 21.809 21.154 20.888 20.707 20.652 20.676 20.389 20.158 19.931 19.678 19.577 19.586 19.593 19.749 19.658 19.446 19.323 19.101 18.998 18.935 18.942 18.741 18.616 18.557 18.36 18.18 18.018 17.918 17.779 17.6 17.424 17.153 17.037 16.965 16.91 16.877 16.775 16.657 16.619 16.628 16.59 16.51 16.571 16.465 16.297 16.058 15.731 15.582 15.55 15.611 15.554 15.552 15.64 15.916 16.09 15.901 15.892 16.237 15.96 15.823 16.095 17.916 21.021 22.883 23.164 23.853 23.751 23.838 23.506 23.107 22.621 21.866 20.921 20.222 19.03 18.128 18.394 19.737 20.395 21.2 21.067 21.12 19.986 19.511 19.757 19.544 19.46 16.372 16.038 17.345 21.466 23.546 22.933 22.97 22.227 22.008 21.432 21.288 21.088 20.925 21.04 20.847 19.655 17.145 13.804 11.735 10.779 10.253 10.404 10.282 10.958 13.091 15.073 15.867 15.644 13.076 12.567 13.083 14.193 15.192 14.982 14.736 14.562 14.451 15.554 14.624 12.653 9.540999 8.613 8.373 7.955999 7.681 7.44 7.434 7.438 7.434999 7.341 7.472 7.392 7.417 7.332 7.657 7.448999 5.568 4.784 6.73 7.028 7.105 6.981 6.984 6.918 6.896999 6.723 6.743999 6.554 6.519 6.472 6.616 6.413 6.528 6.73 10.116 10.015 8.127 8.65 9.036 8.778 7.000999 6.21 5.885 5.787 5.342 5.299 5.069 4.602 4.668 4.852 4.72 4.404 4.213 4.392 4.319 4.382 4.313 4.349 4.384 4.451 4.373 4.188 3.908 3.838 4.11 4.126 7.609 13.238 15.481 16.204 16.325 16.387 16.168 14.768 10.079 5.23 3.972 3.398 3.275 3.082 3.083 2.857 2.744 3 2.94 3.617 4.739 5.541 3.531 2.833 2.464 2.998 4.294 5.061 5.335 3.196 3.873 5.604 10.691 11.537 11.595 11.44 11.554 11.572 11.895 4.807 3.801 3.72 4.138 5.681 9.122 11.265 11.575 11.723 11.582 11.489 11.804 12.07 -999 -999 -999 -999 -999 -999
-999 -999 -999 -999 -999 -999 -999 -999 -999 -999 -999 -999 -999 -999 -999 -999 -999 -999 -999 -999 -999 -999 -999 -999 -999 -999 -999 -999 -999 -999 -999 -999 -999 -999 -999 -999 -999 -999 -999 -999 -999 -999 -999 -999 -999 -999 -999 -999 -999 -999 -999 -999 -999 -999 -999 -999 -999 -999 -999 -999 -999 -999 -999 -999 -999 -999 -999 -999 -999 -999 -999 -999 -999 -999 -999 -999 -999 -999 -999 -999 -999 -999 -999 -999 -999 -999 -999 -999 -999 -999 -999 -999 -999 -999 -999 -999 -999 -999 -999 -999 -999 -999 -999 -999 -999 -999 -999 -999 -999 -999 -999 -999 -999 -999 -999 -999 -999 -999 -999 -999 -999 -999 -999 -999 -999 -999 -999 -999 -999 -999 -999 -999 -999 -999 -999 -999 -999 -999 -999 -999 -999 -999 -999 -999 -999 -999 -999 -999 -999 -999 -999 -999 -999 -999 -999 -999 -999 -999 -999 -999 -999 -999 -999 -999 -999 -999 -999 -999 -999 -999 -999 -999 -999 -999 -999 -999 -999 -999 -999 -999 -999 -999 -999 -999 -999 -999 -999 -999 -999 -999 -999 -999 -999 -999 -999 33.9 31.845 33.457 33.66 33.715 33.131 32.63 33.343 33.402 33.301 33.007 32.84 32.416 32.66 32.634 32.692 32.855 33.613 34.665 37.13 38.315 38.709 38.687 38.331 37.947 -999 -999 -999 -999 -999 -999 -999 -999 -999 -999 -999 -999 -999 -999 -999 -999 -999 -999 -999 -999 -999 -999 -999 -999 -999 -999 -999 -999 -999 -999 -999 -999 -999 -999 -999 -999 -999 -999 -999 -999 -999 -999 -999 -999 -999 -999 -999 -999 -999 -999 -999 -999 -999 -999 -999 -999 -999 -999 -999 -999 -999 -999 -999 29.579 29.082 28.526 26.196 26.397 26.551 26.307 24.528 21.163 22.729 22.766 22.547 22.592 22.858 22.916 23.025 23.091 23.117 23.062 23.004 22.903 22.845 22.9 22.87 22.073 21.449 21.051 20.615 20.467 20.417 20.061 19.973 19.805 19.64 19.487 19.555 19.648 19.908 19.823 19.578 19.428 19.184 19.103 18.96 18.94 18.754 18.741 18.529 18.436 18.135 17.995 17.921 17.846 17.685 17.474 17.183 16.972 16.974 16.995 16.96 16.877 16.835 16.958 16.892 17.002 17.278 17.776 17.522 16.789 16.402 15.8 15.481 15.425 15.503 15.457 15.497 15.87 16.293 16.759 16.779 17.359 17.801 17.451 16.531 16.818 17.99 21.81 23.39 23.785 23.976 24.067 23.615 23.451 23.182 22.547 21.711 22.028 20.93 19.305 18.718 19.359 20.955 21.032 21.296 21.72 22.354 22.064 21.44 21.543 20.832 20.232 18.543 17.974 20.679 22.58 23.793 23.968 23.722 23.399 22.979 21.948 21.249 20.336 20.481 19.774 19.533 18.436 14.325 11.79 10.782 10.167 9.728 9.959 10.047 10.281 11.408 11.996 11.651 10.575 10.063 9.925 10.177 11.048 12.74 13.421 13.168 13.045 13.094 14.791 13.888 11.862 9.789 8.644 8.441 8.168 7.941 7.573999 7.542 7.536 7.387 7.539 7.689 7.464 7.654 7.51 7.618999 6.804999 4.649 7.448 6.781 6.995999 7.045 6.830999 6.827 6.745999 6.775 6.688 6.654 6.596 6.657 6.696 6.767 6.55 6.562 6.995999 8.028 10.688 10.25 8.852 9.094 8.878 7.595 6.638 6.543 6.804999 6.579 5.309 5.503 5.753 6.108 5.049 4.765 4.546 4.744 4.416 4.444 4.583 4.326 4.343 4.537 4.753 4.392 4.002 3.869 3.937 4.542 5.223 8.408999 13.985 15.357 16.397 16.453 16.511 16.588 16.094 13.015 6.296 4.78 3.693 3.634 3.233 2.914 2.884 2.718 2.653 2.574 2.66 2.481 2.567 2.512 2.486 2.717 2.592 2.545 4.955 5.551 5.631 4.939 5.742 11.429 11.386 11.738 11.382 11.521 11.435 10.804 5.251 3.632 3.773 3.868 5.51 9 11.615 11.64 11.481 11.5 11.35 11.613 11.825 -999 -999 -999 -999 -999 -999
-999 -999 -999 -999 -999 -999 -999 -999 -999 -999 -999 -999 -999 -999 -999 -999 -999 -999 -999 -999 -999 -999 -999 -999 -999 -999 -999 -999 -999 -999 -999 -999 -999 -999 -999 -999 -999 -999 -999 -999 -999 -999 -999 -999 -999 -999 -999 -999 -999 -999 -999 -999 -999 -999 -999 -999 -999 -999 -999 -999 -999 -999 -999 -999 -999 -999 -999 -999 -999 -999 -999 -999 -999 -999 -999 -999 -999 -999 -999 -999 -999 -999 -999 -999 -999 -999 -999 -999 -999 -999 -999 -999 -999 -999 -999 -999 -999 -999 -999 -999 -999 -999 -999 -999 -999 -999 -999 -999 -999 -999 -999 -999 -999 -999 -999 -999 -999 -999 -999 -999 -999 -999 -999 -999 -999 -999 -999 -999 -999 -999 -999 -999 -999 -999 -999 -999 -999 -999 -999 -999 -999 -999 -999 -999 -999 -999 -999 -999 -999 -999 -999 -999 -999 -999 -999 -999 -999 -999 -999 -999 -999 -999 -999 -999 -999 -999 -999 -999 -999 -999 -999 -999 -999 -999 -999 -999 -999 -999 -999 -999 -999 -999 -999 -999 -999 -999 -999 -999 -999 -999 -999 -999 -999 -999 34.203 32.438 35.148 33.695 34.618 34.625 33.841 33.618 33.457 33.535 33.379 33.127 32.854 33.021 32.667 32.785 32.735 32.877 34.476 37.081 37.982 38.761 38.761 38.53 38.301 -999 -999 -999 -999 -999 -999 -999 -999 -999 -999 -999 -999 -999 -999 -999 -999 -999 -999 -999 -999 -999 -999 -999 -999 -999 -999 -999 -999 -999 -999 -999 -999 -999 -999 -999 -999 -999 -999 -999 -999 -999 -999 -999 -999 -999 -999 -999 -999 -999 -999 -999 -999 -999 -999 -999 -999 -999 -999 -999 -999 -999 -999 -999 -999 28.334 28.115 27.366 27.498 27.841 28.162 27.172 25.725 25.524 21.455 22.151 22.548 22.645 22.773 22.812 23.01 23.07 23.096 23.059 23.021 22.849 22.754 22.598 22.769 22.33 21.824 21.401 20.787 20.328 19.912 19.818 19.816 19.743 19.653 19.388 19.675 20.017 20.102 20.029 19.569 19.456 19.163 19.01 18.809 18.576 18.511 18.595 18.301 17.759 17.97 17.842 17.881 17.751 17.768 17.668 17.27 17.125 17.058 17.021 16.967 16.885 16.956 16.878 16.846 17.355 17.801 18.682 18.524 17.882 17.681 15.989 15.308 15.225 15.248 15.37 15.591 16.025 16.797 18.719 19.271 21.209 21.667 19.724 17.08 16.875 18.198 21.672 23.846 23.872 23.914 23.656 23.491 23.398 23.502 22.517 21.712 21.19 20.158 19.038 18.775 19.64 20.619 21.008 21.454 22.02 22.489 22.425 22.383 22.119 21.824 21.163 18.591 15.435 18.177 21.568 22.945 23.486 23.598 23.026 22.867 21.774 20.33 17.608 18.536 17.235 16.267 14.091 11.607 10.363 10.464 9.971 9.601 9.474999 9.533999 9.641 9.710999 9.657 9.561 9.335999 9.465 9.447 9.499 9.872 9.748 10.197 10.587 10.741 12.018 12.519 11.552 10.602 9.188 8.404 8.2 8.073999 7.754 7.639 7.625 7.801 7.41 7.731999 7.591 7.698999 7.69 7.488999 7.34 4.57 5.677 6.856999 6.818 6.825 6.885 6.875 6.865 7.054 6.774 6.645 6.815 6.972 6.794 7.023 6.921 7.063 7.061 7.139 7.460999 10.04 11.15 9.398 9.425 9.427999 8.710999 8.315 7.832 7.729 7.095 6.19 5.879 6.49 6.922999 5.696 5.409 5.097 5.003 4.842 4.946 4.588 4.414 4.445 4.519 4.44 4.459 4.41 4.163 4.405 6.065 7.29 7.351 11.446 14.639 16.309 16.759 16.959 17.055 16.615 13.45 8.697 7.575 4.629 4.072 3.682 3.002 3.036 3.004 2.917 2.717 2.587 2.671 2.907 2.773 2.657 2.688 2.882 2.865 2.932 3.366 4.304 5.46 6.535 11.365 11.609 11.653 11.336 11.518 10.904 9.375999 3.876 3.776 3.588 3.905 4.46 7.250999 11.271 11.601 11.379 11.658 11.318 11.498 -999 -999 -999 -999 -999 -999 -999
-999 -999 -999 -999 -999 -999 -999 -999 -999 -999 -999 -999 -999 -999 -999 -999 -999 -999 -999 -999 -999 -999 -999 -999 -999 -999 -999 -999 -999 -999 -999 -999 -999 -999 -999 -999 -999 -999 -999 -999 -999 -999 -999 -999 -999 -999 -999 -999 -999 -999 -999 -999 -999 -999 -999 -999 -999 -999 -999 -999 -999 -999 -999 -999 -999 -999 -999 -999 -999 -999 -999 -999 -999 -999 -999 -999 -999 -999 -999 -999 -999 -999 -999 -999 -999 -999 -999 -999 -999 -999 -999 -999 -999 -999 -999 -999 -999 -999 -999 -999 -999 -999 -999 -999 -999 -999 -999 -999 -999 -999 -999 -999 -999 -999 -999 -999 -999 -999 -999 -999 -999 -999 -999 -999 -999 -999 -999 -999 -999 -999 -999 -999 -999 -999 -999 -999 -999 -999 -999 -999 -999 -999 -999 -999 -999 -999 -999 -999 -999 -999 -999 -999 -999 -999 -999 -999 -999 -999 -999 -999 -999 -999 -999 -999 -999 -999 -999 -999 -999 -999 -999 -999 -999 -999 -999 -999 -999 -999 -999 -999 -999 -999 -999 -999 -999 -999 -999 -999 -999 -999 -999 -999 -999 -999 33.771 37.59 37.854 34.231 36.083 36.797 35.383 34.357 33.951 33.763 33.608 33.387 33.464 33.672 34.763 33.386 32.996 33.355 34.972 37.623 38.984 38.97 38.795 -999 -999 -999 -999 -999 -999 -999 -999 -999 -999 -999 -999 -999 -999 -999 -999 -999 -999 -999 -999 -999 -999 -999 -999 -999 -999 -999 -999 -999 -999 -999 -999 -999 -999 -999 -999 -999 -999 -999 -999 -999 -999 -999 -999 -999 -999 -999 -999 -999 -999 -999 -999 -999 -999 -999 -999 -999 -999 -999 -999 -999 -999 -999 -999 -999 -999 -999 26.247 26.942 27.566 29.108 28.03 26.197 24.604 23.695 25.345 22.706 21.097 22.414 22.885 22.915 22.825 22.977 22.92 22.783 22.669 22.558 22.465 22.391 22.401 22.521 22.013 21.638 21.172 20.505 20.036 19.62 19.488 19.733 19.743 19.973 19.938 19.818 19.876 19.908 19.926 19.721 18.946 18.691 17.972 18.175 15.154 15.374 16.099 16.3 17.881 17.73 17.678 17.53 17.546 17.609 17.211 17.078 17.006 17.014 17.003 16.995 16.932 16.845 17.024 17.555 18.036 18.644 17.526 17.023 16.685 15.892 15.049 14.912 14.962 15.206 15.546 16.184 17.142 19.293 20.892 22.772 22.649 20.978 17.548 17.429 18.876 22.087 23.429 23.659 23.835 23.787 23.574 23.099 22.607 21.73 20.933 20.025 19.581 18.877 19.212 19.888 20.354 20.994 21.512 22.062 22.394 22.658 22.832 22.437 22.088 21.228 18.895 12.91 12.289 18.128 21.49 22.329 22.535 22.607 22.227 21.126 19.431 15.609 12.737 10.915 10.971 10.723 10.276 9.944 10.007 9.852 9.76 9.34 9.223 9.443 9.34 9.063 9.13 8.981999 9.094 9.113 9.064 9.132999 9.063 9.024 9.546 9.653 10.66 10.622 10.304 9.717999 8.683 8.306 8.13 8.026 7.686 7.696 7.709 7.731999 7.761 7.717999 7.688 7.591 7.591 7.301 4.695 5.64 7.216 6.86 6.833 7.124 7.087999 6.988999 6.944 7.079 6.948 7 7.003 7.632 8.887 11.14 10.923 12.268 11.776 9.011 8.087 8.672999 11.783 11.717 10.995 10.69 10.712 9.566999 9.441 8.146 7.092 6.92 6.794 8.057 8.19 8.005 6.439 5.689 5.641 5.841 6.58 6.242 5.918 5.972 6.267 5.786 4.83 5.137 5.667 6.854 8.82 13.294 10.831 9.645 12.993 15.206 16.848 16.914 16.845 15.411 13.531 12.32 11.609 7.707 5.377 5.477 4.668 4.624 4.772 4.193 2.67 2.702 2.739 3.095 2.968 2.729 2.662 2.701 2.663 2.763 3.275 4.303 5.469 8.905 11.312 11.577 11.427 11.646 11.364 10.475 6.231 4.095 4.355 4.267 4.326 4.112 4.745 10.866 11.437 11.289 11.109 10.341 11.049 -999 -999 -999 -999 -999 -999 -999
