ncols         483
nrows         30
xllcorner     518940.000122
yllcorner     9246240.00012
cellsize      20
NODATA_value  -9999
-9999 -9999 -9999 -9999 -9999 -9999 -9999 -9999 -9999 -9999 -9999 -9999 -9999 -9999 -9999 -9999 -9999 -9999 -9999 -9999 -9999 -9999 -9999 -9999 -9999 -9999 -9999 -9999 -9999 -9999 -9999 -9999 -9999 -9999 -9999 -9999 -9999 -9999 -9999 -9999 -9999 -9999 -9999 -9999 -9999 -9999 -9999 -9999 -9999 -9999 -9999 -9999 -9999 -9999 -9999 -9999 -9999 -9999 -9999 -9999 -9999 -9999 -9999 -9999 -9999 -9999 -9999 -9999 -9999 -9999 -9999 -9999 -9999 -9999 -9999 -9999 -9999 -9999 -9999 -9999 -9999 -9999 -9999 -9999 -9999 -9999 -9999 -9999 -9999 -9999 -9999 -9999 -9999 -9999 -9999 -9999 -9999 -9999 -9999 -9999 -9999 -9999 -9999 -9999 -9999 -9999 -9999 -9999 -9999 -9999 -9999 -9999 -9999 -9999 -9999 -9999 -9999 -9999 -9999 -9999 -9999 -9999 -9999 -9999 -9999 -9999 -9999 -9999 -9999 -9999 -9999 -9999 -9999 -9999 -9999 -9999 -9999 -9999 -9999 -9999 -9999 -9999 -9999 -9999 -9999 -9999 -9999 -9999 -9999 -9999 -9999 -9999 -9999 -9999 -9999 -9999 -9999 -9999 -9999 -9999 -9999 -9999 -9999 -9999 -9999 -9999 -9999 -9999 -9999 -9999 -9999 -9999 -9999 -9999 -9999 -9999 -9999 -9999 -9999 -9999 -9999 -9999 -9999 -9999 -9999 -9999 -9999 -9999 -9999 -9999 -9999 -9999 -9999 -9999 -9999 -9999 -9999 -9999 -9999 -9999 -9999 -9999 -9999 -9999 -9999 -9999 -9999 -9999 -9999 -9999 -9999 -9999 -9999 -9999 -9999 -9999 -9999 -9999 -9999 -9999 -9999 -9999 -9999 -9999 -9999 -9999 -9999 -9999 -9999 -9999 -9999 -9999 -9999 -9999 -9999 -9999 -9999 -9999 -9999 -9999 -9999 -9999 -9999 -9999 -9999 -9999 -9999 -9999 -9999 -9999 -9999 -9999 -9999 -9999 -9999 -9999 -9999 -9999 38.067 37.382 37.087 36.724 36.644 36.813 33.569 31.551 30.483 30.216 29.901 29.659 29.321 29.314 29.359 29.253 29.327 29.242 29.101 28.966 28.946 28.605 28.498 29.116 29.17687 28.83028 28.49869 28.396 28.392 28.044 27.901 27.997 27.972 27.745 27.399 27.832 28.54 28.64 29.038 30.05 32.616 32.793 32.903 32.939 32.987 32.959 32.931 -9999 -9999 -9999 -9999 -9999 -9999 -9999 -9999 -9999 -9999 -9999 -9999 -9999 -9999 -9999 -9999 -9999 -9999 -9999 -9999 -9999 -9999 -9999 -9999 -9999 -9999 -9999 -9999 -9999 -9999 -9999 -9999 -9999 -9999 -9999 -9999 -9999 -9999 -9999 -9999 -9999 -9999 -9999 -9999 -9999 -9999 -9999 -9999 -9999 -9999 -9999 -9999 -9999 -9999 -9999 -9999 -9999 -9999 -9999 -9999 -9999 -9999 -9999 -9999 -9999 -9999 -9999 -9999 -9999 -9999 -9999 -9999 -9999 -9999 -9999 -9999 -9999 -9999 -9999 -9999 -9999 -9999 -9999 -9999 -9999 -9999 -9999 -9999 -9999 -9999 -9999 -9999 -9999 -9999 21.814 21.797 21.706 21.717 21.775 21.686 21.573 21.289 21.162 20.985 20.782 20.566 20.517 20.59 20.345 19.469 18.17 16.044 14.613 13.907 13.616 14.369 15.294 15.472 14.437 13.407 12.169 11.474 11.334 11.17817 10.78611 10.698 10.612 10.725 10.595 10.54861 10.409 10.376 10.483 10.39586 10.3042 10.207 9.552999 9.392 9.526 9.646 9.456 9.498999 9.395 9.45 9.405 9.277 9.156 9.003 8.895 8.828 8.838 8.771 9.254 9.868 8.812 8.427 8.33 8.372 8.189999 8.126 8.042 7.849 7.672 7.645 7.693 7.591 7.488 7.469 7.435 7.429 7.507 7.408 7.3 7.15 6.955 6.752 7.216 9.038999
-9999 -9999 -9999 -9999 -9999 -9999 -9999 -9999 -9999 -9999 -9999 -9999 -9999 -9999 -9999 -9999 -9999 -9999 -9999 -9999 -9999 -9999 -9999 -9999 -9999 -9999 -9999 -9999 -9999 -9999 -9999 -9999 -9999 -9999 -9999 -9999 -9999 -9999 -9999 -9999 -9999 -9999 -9999 -9999 -9999 -9999 -9999 -9999 -9999 -9999 -9999 -9999 -9999 -9999 -9999 -9999 -9999 -9999 -9999 -9999 -9999 -9999 -9999 -9999 -9999 -9999 -9999 -9999 -9999 -9999 -9999 -9999 -9999 -9999 -9999 -9999 -9999 -9999 -9999 -9999 -9999 -9999 -9999 -9999 -9999 -9999 -9999 -9999 -9999 -9999 -9999 -9999 -9999 -9999 -9999 -9999 -9999 -9999 -9999 -9999 -9999 -9999 -9999 -9999 -9999 -9999 -9999 -9999 -9999 -9999 -9999 -9999 -9999 -9999 -9999 -9999 -9999 -9999 -9999 -9999 -9999 -9999 -9999 -9999 -9999 -9999 -9999 -9999 -9999 -9999 -9999 -9999 -9999 -9999 -9999 -9999 -9999 -9999 -9999 -9999 -9999 -9999 -9999 -9999 -9999 -9999 -9999 -9999 -9999 -9999 -9999 -9999 -9999 -9999 -9999 -9999 -9999 -9999 -9999 -9999 -9999 -9999 -9999 -9999 -9999 -9999 -9999 -9999 -9999 -9999 -9999 -9999 -9999 -9999 -9999 -9999 -9999 -9999 -9999 -9999 -9999 -9999 -9999 -9999 -9999 -9999 -9999 -9999 -9999 -9999 -9999 -9999 -9999 -9999 -9999 -9999 -9999 -9999 -9999 -9999 -9999 -9999 -9999 -9999 -9999 -9999 -9999 -9999 -9999 -9999 -9999 -9999 -9999 -9999 -9999 -9999 -9999 -9999 -9999 -9999 -9999 -9999 -9999 -9999 -9999 -9999 -9999 -9999 -9999 -9999 -9999 -9999 -9999 -9999 -9999 -9999 -9999 -9999 -9999 -9999 -9999 -9999 -9999 -9999 -9999 -9999 -9999 -9999 -9999 -9999 -9999 -9999 -9999 -9999 -9999 -9999 -9999 -9999 -9999 37.645 37.117 36.746 36.532 35.59 33.118 31.254 30.678 30.219 29.874 29.587 29.518 29.42 29.643 29.234 29.21 29.129 28.969 28.761 28.912 28.62 28.642 29.394 29.446 28.93392 28.5072 28.23402 27.894 27.779 27.797 27.693 27.616 27.413 27.17 27.167 27.279 27.89 28.474 30.531 32.612 32.714 32.705 32.682 32.708 32.677 32.751 32.742 -9999 -9999 -9999 -9999 -9999 -9999 -9999 -9999 -9999 -9999 -9999 -9999 -9999 -9999 -9999 -9999 -9999 -9999 -9999 -9999 -9999 -9999 -9999 -9999 -9999 -9999 -9999 -9999 -9999 -9999 -9999 -9999 -9999 -9999 -9999 -9999 -9999 -9999 -9999 -9999 -9999 -9999 -9999 -9999 -9999 -9999 -9999 -9999 -9999 -9999 -9999 -9999 -9999 -9999 -9999 -9999 -9999 -9999 -9999 -9999 -9999 -9999 -9999 -9999 -9999 -9999 -9999 -9999 27.357 26.759 26.214 26.243 25.781 -9999 -9999 -9999 -9999 -9999 -9999 -9999 -9999 -9999 -9999 -9999 -9999 -9999 -9999 -9999 -9999 -9999 -9999 22.175 22.039 21.929 21.869 21.763 21.743 21.682 21.621 21.451 21.445 21.358 21.12 20.645 20.265 20.284 20.311 20.295 19.333 17.032 13.49 12.561 12.287 12.016 11.884 12.025 12.049 11.683 11.448 11.39794 11.2724 11.14716 10.853 10.583 10.694 10.707 10.711 10.688 10.696 10.522 10.32718 10.36823 10.39263 10.2714 10.2051 9.991287 9.851527 9.703 9.752 9.774 9.691 9.549 9.505 9.498 9.418 9.187 8.996 8.925999 8.894 8.859999 8.743999 10.043 9.776 8.562 8.476 8.373999 8.39 8.335 8.193 8.104 7.979 7.81 7.735 7.796 7.775 7.639 7.607 7.64 7.502 7.393 7.478 7.317 7.295 7.069 6.933 6.799 7.498
-9999 -9999 -9999 -9999 -9999 -9999 -9999 -9999 -9999 -9999 -9999 -9999 -9999 -9999 -9999 -9999 -9999 -9999 -9999 -9999 -9999 -9999 -9999 -9999 -9999 -9999 -9999 -9999 -9999 -9999 -9999 -9999 -9999 -9999 -9999 -9999 -9999 -9999 -9999 -9999 -9999 -9999 -9999 -9999 -9999 -9999 -9999 -9999 -9999 -9999 -9999 -9999 -9999 -9999 -9999 -9999 -9999 -9999 -9999 -9999 -9999 -9999 -9999 -9999 -9999 -9999 -9999 -9999 -9999 -9999 -9999 -9999 -9999 -9999 -9999 -9999 -9999 -9999 -9999 -9999 -9999 -9999 -9999 -9999 -9999 -9999 -9999 -9999 -9999 -9999 -9999 -9999 -9999 -9999 -9999 -9999 -9999 -9999 -9999 -9999 -9999 -9999 -9999 -9999 -9999 -9999 -9999 -9999 -9999 -9999 -9999 -9999 -9999 -9999 -9999 -9999 -9999 -9999 -9999 -9999 -9999 -9999 -9999 -9999 -9999 -9999 -9999 -9999 -9999 -9999 -9999 -9999 -9999 -9999 -9999 -9999 -9999 -9999 -9999 -9999 -9999 -9999 -9999 -9999 -9999 -9999 -9999 -9999 -9999 -9999 -9999 -9999 -9999 -9999 -9999 -9999 -9999 -9999 -9999 -9999 -9999 -9999 -9999 -9999 -9999 -9999 -9999 -9999 -9999 -9999 -9999 -9999 -9999 -9999 -9999 -9999 -9999 -9999 -9999 -9999 -9999 -9999 -9999 -9999 -9999 -9999 -9999 -9999 -9999 -9999 -9999 -9999 -9999 -9999 -9999 -9999 -9999 -9999 -9999 -9999 -9999 -9999 -9999 -9999 -9999 -9999 -9999 -9999 -9999 -9999 -9999 -9999 -9999 -9999 -9999 -9999 -9999 -9999 -9999 -9999 -9999 -9999 -9999 -9999 -9999 -9999 -9999 -9999 -9999 -9999 -9999 -9999 -9999 -9999 -9999 -9999 -9999 -9999 -9999 -9999 -9999 -9999 -9999 -9999 -9999 -9999 -9999 -9999 -9999 -9999 -9999 -9999 -9999 -9999 -9999 -9999 -9999 -9999 -9999 37.62 37.139 36.569 36.011 35.134 33.378 31.613 31 30.411 29.965 29.642 29.585 29.471 29.491 29.214 29.07 28.925 28.782 28.541 28.708 28.595 28.674 29.396 29.451 29.247 28.78719 28.35184 27.91698 27.653 27.49201 27.436 27.356 27.251 27.185 27.118 27.167 27.429 27.941 30.412 32.255 32.716 32.608 32.486 32.501 32.47 32.509 32.547 32.346 32.502 -9999 -9999 -9999 -9999 -9999 -9999 -9999 -9999 -9999 -9999 -9999 -9999 -9999 -9999 -9999 -9999 -9999 -9999 -9999 -9999 -9999 -9999 -9999 -9999 -9999 -9999 -9999 -9999 -9999 -9999 -9999 -9999 -9999 -9999 -9999 -9999 -9999 -9999 -9999 -9999 -9999 -9999 -9999 -9999 -9999 -9999 -9999 -9999 -9999 -9999 -9999 -9999 -9999 -9999 -9999 -9999 -9999 -9999 -9999 -9999 -9999 -9999 -9999 27.708 27.549 27.498 27.202 26.678 26.252 26.35 25.907 25.687 25.563 24.924 23.916 23.711 23.215 22.631 22.266 22.294 22.428 22.612 22.649 22.649 22.606 22.608 22.721 22.552 22.522 22.45 22.171 21.99 21.888 21.825 21.845 21.792 21.652 21.598 21.606 21.399 20.825 20.166 19.932 19.968 20.261 20.228 19.214 16.723 12.769 12.416 12.13 11.827 11.47 11.478 11.592 11.41983 11.488 11.499 11.221 10.83 10.561 10.624 10.692 10.674 10.452 10.344 10.234 10.338 10.18549 10.095 10.104 10.156 10.037 9.818 9.903537 9.820134 9.815734 9.866326 9.828 9.608 9.504 9.479 9.347999 9.27 9.031 8.915 8.946 8.899999 8.712 10.307 9.8 8.729 8.439999 8.453 8.483 8.439999 8.401 8.343 8.154 8.012999 7.976 8.073 8.061 7.944 7.883 7.789 7.726 7.573 7.482 7.34 7.352 7.181 7.078 6.941 6.822
-9999 -9999 -9999 -9999 -9999 -9999 -9999 -9999 -9999 -9999 -9999 -9999 -9999 -9999 -9999 -9999 -9999 -9999 -9999 -9999 -9999 -9999 -9999 -9999 -9999 -9999 -9999 -9999 -9999 -9999 -9999 -9999 -9999 -9999 -9999 -9999 -9999 -9999 -9999 -9999 -9999 -9999 -9999 -9999 -9999 -9999 -9999 -9999 -9999 -9999 -9999 -9999 -9999 -9999 -9999 -9999 -9999 -9999 -9999 -9999 -9999 -9999 -9999 -9999 -9999 -9999 -9999 -9999 -9999 -9999 -9999 -9999 -9999 -9999 -9999 -9999 -9999 -9999 -9999 -9999 -9999 -9999 -9999 -9999 -9999 -9999 -9999 -9999 -9999 -9999 -9999 -9999 -9999 -9999 -9999 -9999 -9999 -9999 -9999 -9999 -9999 -9999 -9999 -9999 -9999 -9999 -9999 -9999 -9999 -9999 -9999 -9999 -9999 -9999 -9999 -9999 -9999 -9999 -9999 -9999 -9999 -9999 -9999 -9999 -9999 -9999 -9999 -9999 -9999 -9999 -9999 -9999 -9999 -9999 -9999 -9999 -9999 -9999 -9999 -9999 -9999 -9999 -9999 -9999 -9999 -9999 -9999 -9999 -9999 -9999 -9999 -9999 -9999 -9999 -9999 -9999 -9999 -9999 -9999 -9999 -9999 -9999 -9999 -9999 -9999 -9999 -9999 -9999 -9999 -9999 -9999 -9999 -9999 -9999 -9999 -9999 -9999 -9999 -9999 -9999 -9999 -9999 -9999 -9999 -9999 -9999 -9999 -9999 -9999 -9999 -9999 -9999 -9999 -9999 -9999 -9999 -9999 -9999 -9999 -9999 -9999 -9999 -9999 -9999 -9999 -9999 -9999 -9999 -9999 -9999 -9999 -9999 40.949 -9999 -9999 -9999 -9999 -9999 -9999 -9999 -9999 -9999 -9999 -9999 -9999 -9999 -9999 -9999 -9999 -9999 -9999 -9999 -9999 -9999 -9999 -9999 -9999 -9999 -9999 -9999 -9999 -9999 -9999 -9999 -9999 -9999 -9999 -9999 -9999 -9999 -9999 -9999 -9999 -9999 -9999 -9999 -9999 -9999 -9999 37.395 37.125 36.544 35.828 35.13 34.514 33.006 31.244 30.873 30.451 29.86 29.644 29.335 29.263 29.127 28.934 28.787 28.673 28.562 28.642 28.582 28.71 29.536 29.6 29.276 29.146 28.781 28.28079 27.80324 27.39618 27.28836 27.234 27.167 27.09 27.025 27.031 27.167 27.276 28.946 31.689 32.517 32.465 32.593 32.472 32.374 32.372 32.281 32.138 32.137 32.027 -9999 -9999 -9999 -9999 -9999 -9999 -9999 -9999 -9999 -9999 -9999 -9999 -9999 -9999 -9999 -9999 -9999 -9999 -9999 -9999 -9999 -9999 -9999 -9999 -9999 -9999 -9999 -9999 -9999 -9999 -9999 -9999 -9999 -9999 -9999 -9999 -9999 -9999 -9999 -9999 -9999 -9999 -9999 -9999 -9999 -9999 -9999 -9999 -9999 -9999 -9999 -9999 -9999 -9999 -9999 -9999 -9999 -9999 24.345 27.126 27.687 27.619 27.454 27.292 27.277 27.048 26.358 26.296 26.423 25.946 25.79 25.524 25.225 24.631 24.29 23.481 22.777 22.212 22.285 22.413 22.509 22.493 22.288 22.194 22.255 22.365 22.371 22.34 22.382 22.202 21.982 21.888 21.857 21.735 21.68 21.648 21.511 21.427 20.814 19.642 18.03 17.127 18.723 20.034 20.01 19.084 16.054 12.499 12.069 12.027 11.859 11.686 11.258 11.57171 11.62513 11.585 11.506 11.225 10.933 10.799 10.754 10.671 10.518 10.397 10.272 10.187 10.126 10.277 10.021 9.897 9.909 9.776 9.571999 9.820001 9.795 9.707026 9.884132 9.729232 9.609515 9.505411 9.487659 9.414363 9.45471 9.325587 9.060436 9.021847 8.998676 8.897 10.8 10.8 9.375412 8.831694 8.688 8.821999 8.59 8.404 8.363 8.365 8.276 8.326999 8.356 8.436 8.195 8.016 7.879 7.897 7.816 7.745 7.539 7.441 7.374 7.134 6.995 6.835
-9999 -9999 -9999 -9999 -9999 -9999 -9999 -9999 -9999 -9999 -9999 -9999 -9999 -9999 -9999 -9999 -9999 -9999 -9999 -9999 -9999 -9999 -9999 -9999 -9999 -9999 -9999 -9999 -9999 -9999 -9999 -9999 -9999 -9999 -9999 -9999 -9999 -9999 -9999 -9999 -9999 -9999 -9999 -9999 -9999 -9999 -9999 -9999 -9999 -9999 -9999 -9999 -9999 -9999 -9999 -9999 -9999 -9999 -9999 -9999 -9999 -9999 -9999 -9999 -9999 -9999 -9999 -9999 -9999 -9999 -9999 -9999 -9999 -9999 -9999 -9999 -9999 -9999 -9999 -9999 -9999 -9999 -9999 -9999 -9999 -9999 -9999 -9999 -9999 -9999 -9999 -9999 -9999 -9999 -9999 -9999 -9999 -9999 -9999 -9999 -9999 -9999 -9999 -9999 -9999 -9999 -9999 -9999 -9999 -9999 -9999 -9999 -9999 -9999 -9999 -9999 -9999 -9999 -9999 -9999 -9999 -9999 -9999 -9999 -9999 -9999 -9999 -9999 -9999 -9999 -9999 -9999 -9999 -9999 -9999 -9999 -9999 -9999 -9999 -9999 -9999 -9999 -9999 -9999 -9999 -9999 -9999 -9999 -9999 -9999 -9999 -9999 -9999 -9999 -9999 -9999 -9999 -9999 -9999 -9999 -9999 -9999 -9999 -9999 -9999 -9999 -9999 -9999 -9999 -9999 -9999 -9999 -9999 -9999 -9999 -9999 -9999 -9999 -9999 -9999 -9999 -9999 -9999 -9999 -9999 -9999 -9999 -9999 -9999 -9999 -9999 -9999 -9999 -9999 -9999 -9999 -9999 -9999 -9999 -9999 -9999 -9999 -9999 -9999 -9999 -9999 -9999 -9999 -9999 -9999 -9999 39.502 39.688 40.048 40.63 -9999 -9999 -9999 -9999 -9999 -9999 -9999 -9999 -9999 -9999 -9999 -9999 -9999 -9999 -9999 -9999 -9999 -9999 -9999 -9999 -9999 -9999 -9999 -9999 -9999 -9999 -9999 -9999 -9999 -9999 -9999 -9999 -9999 -9999 -9999 -9999 -9999 -9999 -9999 -9999 -9999 -9999 -9999 -9999 37.112 36.928 36.379 35.961 35.434 34.662 34.092 33.314 31.597 31.12 30.396 29.758 29.273 29.151 28.998 28.808 28.609 28.442 28.506 28.637 28.471 28.747 29.682 29.733 29.62 29.476 29.277 28.806 28.11319 27.56316 27.1495 27.0949 27.154 27.074 26.963 26.918 26.863 26.955 27.716 30.399 32.073 32.338 32.362 32.205 32.108 32.055 31.966 31.874 31.883 31.747 31.4 31.206 -9999 -9999 -9999 -9999 -9999 -9999 -9999 -9999 -9999 -9999 -9999 -9999 -9999 -9999 -9999 -9999 -9999 -9999 -9999 -9999 -9999 -9999 -9999 -9999 -9999 -9999 -9999 -9999 -9999 -9999 -9999 -9999 -9999 -9999 -9999 -9999 -9999 -9999 -9999 -9999 -9999 -9999 -9999 -9999 -9999 -9999 -9999 -9999 -9999 -9999 -9999 -9999 -9999 20.811 19.855 20.203 23.044 26.16 27.114 27.487 27.417 27.406 27.188 26.691 25.273 26.323 26.187 25.899 25.741 25.393 25.191 24.912 24.578 23.758 22.734 22.451 22.407 22.515 22.267 22.094 21.971 21.812 21.647 21.646 21.823 21.91 21.982 21.983 21.894 21.844 21.843 21.722 21.57 21.426 21.159 20.866 20.144 17.371 14.71 14.114 15.147 18.483 19.426 19.173 15.619 12.651 11.922 11.924 11.891 11.711 11.53083 11.68463 11.595 11.318 11.293 11.114 10.939 10.812 10.718 10.516 10.413 10.388 10.238 10.169 10.124 10.181 9.881 9.748 9.524 9.380999 9.498999 9.541 9.562 9.52 9.453 9.376 9.364 9.470724 9.538555 9.392788 9.312 9.319521 9.412 9.329471 9.395166 10.07139 10.8 10.8 9.29826 8.895521 8.832492 8.761586 8.500874 8.39062 8.276161 8.236453 8.203193 8.300634 8.368182 8.32672 8.173075 7.982342 7.841396 7.84717 7.814991 7.800988 7.727 7.722 7.664 7.306 7.099 6.858
-9999 -9999 -9999 -9999 -9999 -9999 -9999 -9999 -9999 -9999 -9999 -9999 -9999 -9999 -9999 -9999 -9999 -9999 -9999 -9999 -9999 -9999 -9999 -9999 -9999 -9999 -9999 -9999 -9999 -9999 -9999 -9999 -9999 -9999 -9999 -9999 -9999 -9999 -9999 -9999 -9999 -9999 -9999 -9999 -9999 -9999 -9999 -9999 -9999 -9999 -9999 -9999 -9999 -9999 -9999 -9999 -9999 -9999 -9999 -9999 -9999 -9999 -9999 -9999 -9999 -9999 -9999 -9999 -9999 -9999 -9999 -9999 -9999 -9999 -9999 -9999 -9999 -9999 -9999 -9999 -9999 -9999 -9999 -9999 -9999 -9999 -9999 -9999 -9999 -9999 -9999 -9999 -9999 -9999 -9999 -9999 -9999 -9999 -9999 -9999 -9999 -9999 -9999 -9999 -9999 -9999 -9999 -9999 -9999 -9999 -9999 -9999 -9999 -9999 -9999 -9999 -9999 -9999 -9999 -9999 -9999 -9999 -9999 -9999 -9999 -9999 -9999 -9999 -9999 -9999 -9999 -9999 -9999 -9999 -9999 -9999 -9999 -9999 -9999 -9999 -9999 -9999 -9999 -9999 -9999 -9999 -9999 -9999 -9999 -9999 -9999 -9999 -9999 -9999 -9999 -9999 -9999 -9999 -9999 -9999 -9999 -9999 -9999 -9999 -9999 -9999 -9999 -9999 -9999 -9999 -9999 -9999 -9999 -9999 -9999 -9999 -9999 -9999 -9999 -9999 -9999 -9999 -9999 -9999 -9999 -9999 -9999 -9999 -9999 -9999 -9999 -9999 -9999 -9999 -9999 -9999 -9999 -9999 -9999 -9999 -9999 -9999 -9999 -9999 -9999 -9999 -9999 -9999 -9999 -9999 -9999 38.229 37.891 39.026 39.828 39.991 39.889 -9999 -9999 -9999 -9999 -9999 -9999 -9999 -9999 -9999 -9999 -9999 -9999 -9999 -9999 -9999 -9999 -9999 -9999 -9999 -9999 -9999 -9999 -9999 -9999 -9999 -9999 -9999 -9999 -9999 -9999 -9999 -9999 -9999 -9999 -9999 -9999 -9999 -9999 -9999 -9999 -9999 36.962 36.854 36.733 35.4 34.965 35.091 34.924 34.402 33.629 33.221 31.969 30.726 29.795 29.27 29.147 28.995 28.772 28.654 28.728 28.71 28.668 28.527 28.915 29.662 29.682 29.634 29.63 29.5 29.099 28.64 27.728 27.11564 27.12184 27.117 27.044 26.895 26.825 26.662 26.565 26.81 28.647 31.799 31.955 32.043 31.971 31.859 31.802 31.681 31.616 31.547 31.446 31.112 30.858 30.745 30.559 -9999 -9999 -9999 -9999 -9999 -9999 -9999 -9999 -9999 -9999 -9999 -9999 -9999 -9999 -9999 -9999 -9999 -9999 -9999 -9999 -9999 -9999 -9999 -9999 -9999 -9999 -9999 -9999 -9999 -9999 -9999 -9999 -9999 -9999 -9999 -9999 -9999 -9999 -9999 -9999 -9999 -9999 -9999 -9999 -9999 -9999 -9999 27.457 26.498 26.177 24.683 21.882 19.901 19.579 21.36 24.595 25.904 26.467 26.806 26.786 26.268 25.359 24.681 26.212 26.101 25.837 25.511 25.256 25.109 24.895 24.622 23.962 23.362 22.686 22.395 22.275 21.78 21.539 20.806 21.074 20.855 20.599 21.011 21.286 21.399 21.2 21.577 21.717 21.683 21.315 20.877 20.3 19.834 18.216 15.564 13.936 13.388 13.213 13.831 16.229 18.927 18.049 14.759 12.281 11.845 11.838 11.667 11.65353 11.59372 11.793 11.684 11.275 11.177 11.014 10.861 10.73 10.633 10.601 10.449 10.401 10.327 10.231 10.173 10.147 9.883 9.753 9.644 9.554 9.372 9.408 9.521 9.533 9.487 9.292 9.125 9.311 9.533 9.384 9.271 9.201999 9.221 9.269 9.515 9.824 10.8 10.8 8.872722 8.630999 8.719 8.431 8.343 8.361 8.148458 8.0799 8.021 8.137226 8.459578 8.217 7.889547 7.857524 7.854948 7.623034 7.547141 7.852661 7.975096 7.896667 7.813913 7.636 7.422 6.989
-9999 -9999 -9999 -9999 -9999 -9999 -9999 -9999 -9999 -9999 -9999 -9999 -9999 -9999 -9999 -9999 -9999 -9999 -9999 -9999 -9999 -9999 -9999 -9999 -9999 -9999 -9999 -9999 -9999 -9999 -9999 -9999 -9999 -9999 -9999 -9999 -9999 -9999 -9999 -9999 -9999 -9999 -9999 -9999 -9999 -9999 -9999 -9999 -9999 -9999 -9999 -9999 -9999 -9999 -9999 -9999 -9999 -9999 -9999 -9999 -9999 -9999 -9999 -9999 -9999 -9999 -9999 -9999 -9999 -9999 -9999 -9999 -9999 -9999 -9999 -9999 -9999 -9999 -9999 -9999 -9999 -9999 -9999 -9999 -9999 -9999 -9999 -9999 -9999 -9999 -9999 -9999 -9999 -9999 -9999 -9999 -9999 -9999 -9999 -9999 -9999 -9999 -9999 -9999 -9999 -9999 -9999 -9999 -9999 -9999 -9999 -9999 -9999 -9999 -9999 -9999 -9999 -9999 -9999 -9999 -9999 -9999 -9999 -9999 -9999 -9999 -9999 -9999 -9999 -9999 -9999 -9999 -9999 -9999 -9999 -9999 -9999 -9999 -9999 -9999 -9999 -9999 -9999 -9999 -9999 -9999 -9999 -9999 -9999 -9999 -9999 -9999 -9999 -9999 -9999 -9999 -9999 -9999 -9999 -9999 -9999 -9999 -9999 -9999 -9999 -9999 -9999 -9999 -9999 -9999 -9999 -9999 -9999 -9999 -9999 -9999 -9999 -9999 -9999 -9999 -9999 -9999 -9999 -9999 -9999 -9999 -9999 -9999 -9999 -9999 -9999 -9999 -9999 -9999 -9999 -9999 -9999 -9999 -9999 -9999 -9999 -9999 -9999 -9999 -9999 -9999 -9999 -9999 -9999 -9999 36.141 37.303 36.529 37.492 39.043 38.972 38.219 38.85 39.755 -9999 -9999 -9999 -9999 -9999 -9999 -9999 -9999 -9999 -9999 -9999 -9999 -9999 -9999 -9999 -9999 -9999 -9999 -9999 -9999 -9999 -9999 -9999 -9999 -9999 -9999 -9999 -9999 -9999 -9999 -9999 -9999 -9999 -9999 -9999 -9999 -9999 -9999 -9999 36.724 36.663 35.949 33.999 33.211 32.745 33.412 34.123 33.9 33.36 32.679 30.946 29.932 29.332 29.129 29.021 28.84 28.741 28.738 28.614 28.563 28.696 29.035 29.425 29.664 29.647 29.699 29.586 29.305 28.967 28.677 27.576 27.17354 27.07025 27.024 26.832 26.654 26.578 26.391 26.376 27.035 29.662 31.487 31.713 31.861 31.612 31.735 31.683 31.439 31.298 31.209 30.897 30.696 30.635 30.542 30.449 -9999 -9999 -9999 -9999 -9999 -9999 -9999 -9999 -9999 -9999 -9999 -9999 -9999 -9999 -9999 -9999 -9999 -9999 -9999 -9999 -9999 -9999 -9999 -9999 -9999 -9999 -9999 -9999 -9999 -9999 -9999 -9999 -9999 -9999 -9999 -9999 -9999 -9999 -9999 -9999 -9999 -9999 -9999 -9999 28.368 27.624 27.192 25.866 24.769 23.67 22.414 20.065 19.168 20.382 24.537 25.109 25.423 25.315 24.973 25.394 24.704 25.042 25.883 25.865 25.622 25.19 24.85 24.627 24.462 24.005 23.798 23.805 23.15 22.293 21.075 18.936 17.543 16.282 16.881 17.519 16.597 16.05 18.525 20.65 20.812 20.668 18.219 18.171 18.047 17.401 17.143 15.6 14.2 13.701 13.291 13.119 13.03 13.177 13.702 17 16.016 13.814 12.17 11.795 11.654 11.6829 11.70562 11.57059 11.666 11.59 11.165 11.055 10.923 10.797 10.648 10.562 10.571 10.481 10.389 10.359 10.518 10.152 10.233 10.084 9.682 9.706 9.524 9.441 9.564 9.822 10.093 10.061 9.628 9.182 9.269 9.237 9.232 9.332 9.212 9.161 9.142999 9.397 9.689999 12.211 9.028 8.774999 8.412 8.380999 8.313 8.311 8.134 7.974 7.884 7.831 7.859 8.185 8.151 7.927 7.762 7.993 7.794 7.524 7.991 7.93 8.142 7.919822 7.785 7.681 7.184
-9999 -9999 -9999 -9999 -9999 -9999 -9999 -9999 -9999 -9999 -9999 -9999 -9999 -9999 -9999 -9999 -9999 -9999 -9999 -9999 -9999 -9999 -9999 -9999 -9999 -9999 -9999 -9999 -9999 -9999 -9999 -9999 -9999 -9999 -9999 -9999 -9999 -9999 -9999 -9999 -9999 -9999 -9999 -9999 -9999 -9999 -9999 -9999 -9999 -9999 -9999 -9999 -9999 -9999 -9999 -9999 -9999 -9999 -9999 -9999 -9999 -9999 -9999 -9999 -9999 -9999 -9999 -9999 -9999 -9999 -9999 -9999 -9999 -9999 -9999 -9999 -9999 -9999 -9999 -9999 -9999 -9999 -9999 -9999 -9999 -9999 -9999 -9999 -9999 -9999 -9999 -9999 -9999 -9999 -9999 -9999 -9999 -9999 -9999 -9999 -9999 -9999 -9999 -9999 -9999 -9999 -9999 -9999 -9999 -9999 -9999 -9999 -9999 -9999 -9999 -9999 -9999 -9999 -9999 -9999 -9999 -9999 -9999 -9999 -9999 -9999 -9999 -9999 -9999 -9999 -9999 -9999 -9999 -9999 -9999 -9999 -9999 -9999 -9999 -9999 -9999 -9999 -9999 -9999 -9999 -9999 -9999 -9999 -9999 -9999 -9999 -9999 -9999 -9999 -9999 -9999 -9999 -9999 -9999 -9999 -9999 -9999 -9999 -9999 -9999 -9999 -9999 -9999 -9999 -9999 -9999 -9999 -9999 -9999 -9999 -9999 -9999 -9999 -9999 -9999 -9999 -9999 -9999 -9999 -9999 -9999 -9999 -9999 -9999 -9999 -9999 -9999 -9999 -9999 -9999 -9999 -9999 -9999 -9999 -9999 -9999 -9999 -9999 -9999 -9999 -9999 -9999 -9999 -9999 33.418 33.899 34.34 34.56 35.374 36.147 36.329 37.499 38.255 39.235 39.345 39.182 -9999 -9999 -9999 -9999 -9999 -9999 -9999 -9999 -9999 -9999 -9999 -9999 -9999 -9999 -9999 -9999 -9999 -9999 -9999 -9999 -9999 -9999 -9999 -9999 -9999 -9999 -9999 -9999 -9999 -9999 -9999 -9999 -9999 -9999 -9999 -9999 36.441 36.45 36.615 34.011 33.32 32.523 31.999 31.826 32.26 33.248 33.189 32.927 32.24 31.109 29.77 29.32 29.032 28.879 28.739 28.707 28.556 28.459 28.735 28.938 29.192 29.293 29.51 29.645 29.565 29.226 29.023 28.788 28.561 28.086 27.12682 27.40529 27.505 26.598 26.429 26.276 26.091 26.339 27.837 30.873 31.603 31.758 31.658 31.772 31.344 31.089 30.969 30.926 30.684 30.647 30.494 30.397 30.256 30.318 30.367 -9999 -9999 -9999 -9999 -9999 -9999 -9999 -9999 -9999 -9999 -9999 -9999 -9999 -9999 -9999 -9999 -9999 -9999 -9999 -9999 -9999 -9999 -9999 -9999 -9999 -9999 -9999 -9999 -9999 -9999 -9999 -9999 -9999 -9999 -9999 -9999 -9999 -9999 -9999 -9999 29.027 28.382 27.734 26.502 25.008 23.588 22.055 20.929 20.19 19.626 19.03 20.25 24.197 24.775 25.02 23.649 20.747 21.179 22.556 23.966 24.625 23.92 24.503 24.365 23.72 23.557 23.485 22.805 20.613 18.73 20.297 21.245 18.546 15.665 14.875 14.738 14.95 14.959 14.701 14.813 14.845 16.381 17.731 16.174 14.448 14.116 14.291 14.28 14.027 13.762 13.408 13.007 12.832 12.855 12.795 12.739 12.952 13.28 13.221 12.702 12.057 11.79296 11.724 11.79718 11.633 11.467 11.438 11.324 11.106 10.963 10.804 10.745 10.666 10.451 10.442 10.399 10.38 10.275 10.432 10.142 9.992 9.783 9.581 9.418999 9.488 9.887 9.595 10.209 10.729 10.424 9.899 9.354999 9.193 9.28 9.271 9.382 9.34 9.201999 9.127 9.133 9.446 12.969 9.696999 8.673 8.549 8.42 8.394 8.203 8.056 7.889 7.913 8.081 8.257 8.455 8.373999 8.395 8.545999 8.864 9.377 9.034 8.829 8.217 7.882 7.934876 7.918883 7.785637 7.532898
-9999 -9999 -9999 -9999 -9999 -9999 -9999 -9999 -9999 -9999 -9999 -9999 -9999 -9999 -9999 -9999 -9999 -9999 -9999 -9999 -9999 -9999 -9999 -9999 -9999 -9999 -9999 -9999 -9999 -9999 -9999 -9999 -9999 -9999 -9999 -9999 -9999 -9999 -9999 -9999 -9999 -9999 -9999 -9999 -9999 -9999 -9999 -9999 -9999 -9999 -9999 -9999 -9999 -9999 -9999 -9999 -9999 -9999 -9999 -9999 -9999 -9999 -9999 -9999 -9999 -9999 -9999 -9999 -9999 -9999 -9999 -9999 -9999 -9999 -9999 -9999 -9999 -9999 -9999 -9999 -9999 -9999 -9999 -9999 -9999 -9999 -9999 -9999 -9999 -9999 -9999 -9999 -9999 -9999 -9999 -9999 -9999 -9999 -9999 -9999 -9999 -9999 -9999 -9999 -9999 -9999 -9999 -9999 -9999 -9999 -9999 -9999 -9999 -9999 -9999 -9999 -9999 -9999 -9999 -9999 -9999 -9999 -9999 -9999 -9999 -9999 -9999 -9999 -9999 -9999 -9999 -9999 -9999 -9999 -9999 -9999 -9999 -9999 -9999 -9999 -9999 -9999 -9999 -9999 -9999 -9999 -9999 -9999 -9999 -9999 -9999 -9999 -9999 -9999 -9999 -9999 -9999 -9999 -9999 -9999 -9999 -9999 -9999 -9999 -9999 -9999 -9999 -9999 -9999 -9999 -9999 -9999 -9999 -9999 -9999 -9999 -9999 -9999 -9999 -9999 -9999 -9999 -9999 -9999 -9999 -9999 -9999 -9999 -9999 -9999 -9999 -9999 -9999 -9999 -9999 -9999 -9999 -9999 -9999 -9999 -9999 -9999 -9999 -9999 -9999 -9999 -9999 -9999 33.488 33.125 33.152 33.154 33.279 33.552 33.912 34.293 36.259 38.233 38.83 38.648 38.319 38.888 38.394 36.871 -9999 -9999 -9999 -9999 -9999 -9999 -9999 -9999 -9999 -9999 -9999 -9999 -9999 -9999 -9999 -9999 -9999 -9999 -9999 -9999 -9999 -9999 -9999 -9999 -9999 -9999 -9999 -9999 -9999 -9999 -9999 -9999 36.203 36.114 36.089 36.212 35.086 34.397 33.817 33.428 32.311 31.47 31.005 32.225 32.484 32.372 31.703 30.989 29.617 28.869 28.825 28.827 28.747 28.626 28.598 28.756 28.9 29.066 29.183 29.275 29.322 29.274 29.132 29.005 28.84 28.695 28.61 28.322 27.591 27.42632 26.539 26.308 26.111 25.874 25.909 26.69 29.851 31.468 31.647 31.667 31.711 31.612 30.857 30.605 30.412 30.518 30.43 30.288 30.303 30.055 30.074 30.351 30.213 -9999 -9999 -9999 -9999 -9999 -9999 -9999 -9999 -9999 -9999 -9999 -9999 -9999 -9999 -9999 -9999 -9999 -9999 -9999 -9999 -9999 -9999 -9999 -9999 -9999 -9999 -9999 -9999 -9999 -9999 -9999 -9999 -9999 -9999 -9999 -9999 -9999 29.441 29.126 28.665 27.931 27.043 25.922 24.227 23.007 22.103 20.738 19.85 19.491 18.987 19.897 22.137 23.757 23.859 22.133 19.727 19.951 21.713 22.041 21.65 20.588 22.343 21.304 18.574 17.831 19.567 19.454 17.161 16.123 16.274 17.419 15.447 14.79 14.367 14.316 14.336 14.322 14.328 14.363 14.272 14.377 14.442 14.383 13.89 13.503 13.529 13.497 13.363 13.162 12.878 12.749 12.656 12.721 12.651 12.352 12.64781 12.62245 12.50619 12.30328 12.16874 11.97562 11.77 11.669 11.527 11.228 11.323 11.247 11.073 10.889 10.757 10.721 10.72 10.544 10.498 10.399 10.214 10.157 10.247 10.25 9.983 9.682 9.615 9.628 10.697 10.959 10.913 11.189 11.152 10.715 10.213 9.692 9.339 9.398 9.608 9.604 9.442 9.259 9.287 9.408 10.523 13.769 10.87 8.975 8.527 8.357 8.333 8.218 7.86 7.572 8.288 8.387999 8.931 9.325 10.353 10.612 10.08 10.057 12.049 12.69 12.627 11.451 9.329 7.781 7.862 7.907 8.065268
-9999 -9999 -9999 -9999 -9999 -9999 -9999 -9999 -9999 -9999 -9999 -9999 -9999 -9999 -9999 -9999 -9999 -9999 -9999 -9999 -9999 -9999 -9999 -9999 -9999 -9999 -9999 -9999 -9999 -9999 -9999 -9999 -9999 -9999 -9999 -9999 -9999 -9999 -9999 -9999 -9999 -9999 -9999 -9999 -9999 -9999 -9999 -9999 -9999 -9999 -9999 -9999 -9999 -9999 -9999 -9999 -9999 -9999 -9999 -9999 -9999 -9999 -9999 -9999 -9999 -9999 -9999 -9999 -9999 -9999 -9999 -9999 -9999 -9999 -9999 -9999 -9999 -9999 -9999 -9999 -9999 -9999 -9999 -9999 -9999 -9999 -9999 -9999 -9999 -9999 -9999 -9999 -9999 -9999 -9999 -9999 -9999 -9999 -9999 -9999 -9999 -9999 -9999 -9999 -9999 -9999 -9999 -9999 -9999 -9999 -9999 -9999 -9999 -9999 -9999 -9999 -9999 -9999 -9999 -9999 -9999 -9999 -9999 -9999 -9999 -9999 -9999 -9999 -9999 -9999 -9999 -9999 -9999 -9999 -9999 -9999 -9999 -9999 -9999 -9999 -9999 -9999 -9999 -9999 -9999 -9999 -9999 -9999 -9999 -9999 -9999 -9999 -9999 -9999 -9999 -9999 -9999 -9999 -9999 -9999 -9999 -9999 -9999 -9999 -9999 -9999 -9999 -9999 -9999 -9999 -9999 -9999 -9999 -9999 -9999 -9999 -9999 -9999 -9999 -9999 -9999 -9999 -9999 -9999 -9999 -9999 -9999 -9999 -9999 -9999 -9999 -9999 -9999 -9999 -9999 -9999 -9999 -9999 -9999 -9999 -9999 -9999 -9999 -9999 -9999 -9999 -9999 -9999 33.01 33.225 33.059 32.984 32.791 33.048 33.235 33.742 35.802 37.95 38.341 38.066 36.747 36.952 38.197 37.635 33.705 33.299 -9999 -9999 -9999 -9999 -9999 -9999 -9999 -9999 -9999 -9999 -9999 -9999 -9999 -9999 -9999 -9999 -9999 -9999 -9999 -9999 -9999 -9999 -9999 -9999 -9999 -9999 -9999 -9999 -9999 35.396 35.31 35.414 35.618 36.005 35.527 35.293 35.333 34.643 34.094 33.334 30.697 30.317 30.84 31.723 31.566 31.16 30.319 29.043 28.868 28.73 28.765 28.64 28.671 28.736 28.861 28.951 29.039 29.113 29.104 29.059 28.944 28.853 28.751 28.662 28.635 28.503 27.846 27.16364 26.22018 26.057 25.941 25.896 25.869 26.355 29.572 31.179 31.632 31.582 31.446 31.358 30.404 30.02 29.329 29.43 29.5 29.135 29.715 29.908 29.909 29.884 29.723 29.64 29.444 29.265 28.513 27.841 -9999 -9999 -9999 -9999 -9999 -9999 -9999 -9999 -9999 -9999 -9999 -9999 -9999 -9999 -9999 -9999 -9999 -9999 -9999 -9999 -9999 -9999 -9999 -9999 -9999 -9999 -9999 -9999 -9999 -9999 -9999 29.651 29.711 29.359 28.463 27.97 27.425 27.213 26.592 26.045 25 23.783 21.691 19.472 18.789 18.976 19.021 21.18 22.12 19.746 18.836 19.3 20.78 19.21 18.826 17.848 17.984 17.437 17.458 17.074 16.803 16.547 16.225 15.633 15.671 15.461 14.803 14.611 14.412 14.277 14.241 14.2 14.14 14.095 13.943 13.863 13.616 13.501 13.467 13.467 13.304 13.224 13.157 12.92 12.728 12.718 12.694 12.617 12.654 12.39212 12.73181 12.67647 12.55064 12.301 12.256 12.048 11.828 11.677 11.434 11.355 11.409 11.177 11.003 10.832 10.766 10.657 10.56 10.367 10.25 10.278 10.24 10.253 10.264 10.22 10.218 10.267 11.054 12.563 13.917 13.975 13.391 13.18 12.14 10.822 10.423 10.044 9.848 9.743999 9.679 9.467 9.372 9.965 10.04 10.245 11.327 14.608 12.532 9.571999 9.288999 8.738 8.347 8.185 7.91 7.969 8.413 9.503 10.637 10.808 13.274 12.756 10.908 10.757 13.056 14.387 14.538 12.379 9.357 7.671 7.794 7.674 7.557
-9999 -9999 -9999 -9999 -9999 -9999 -9999 -9999 -9999 -9999 -9999 -9999 -9999 -9999 -9999 -9999 -9999 -9999 -9999 -9999 -9999 -9999 -9999 -9999 -9999 -9999 -9999 -9999 -9999 -9999 -9999 -9999 -9999 -9999 -9999 -9999 -9999 -9999 -9999 -9999 -9999 -9999 -9999 -9999 -9999 -9999 -9999 -9999 -9999 -9999 -9999 -9999 -9999 -9999 -9999 -9999 -9999 -9999 -9999 -9999 -9999 -9999 -9999 -9999 -9999 -9999 -9999 -9999 -9999 -9999 -9999 -9999 -9999 -9999 -9999 -9999 -9999 -9999 -9999 -9999 -9999 -9999 -9999 -9999 -9999 -9999 -9999 -9999 -9999 -9999 -9999 -9999 -9999 -9999 -9999 -9999 -9999 -9999 -9999 -9999 -9999 -9999 -9999 -9999 -9999 -9999 -9999 -9999 -9999 -9999 -9999 -9999 -9999 -9999 -9999 -9999 -9999 -9999 -9999 -9999 -9999 -9999 -9999 -9999 -9999 -9999 -9999 -9999 -9999 -9999 -9999 -9999 -9999 -9999 -9999 -9999 -9999 -9999 -9999 -9999 -9999 -9999 -9999 -9999 -9999 -9999 -9999 -9999 -9999 -9999 -9999 -9999 -9999 -9999 -9999 -9999 -9999 -9999 -9999 -9999 -9999 -9999 -9999 -9999 -9999 -9999 -9999 -9999 -9999 -9999 -9999 -9999 -9999 -9999 -9999 -9999 -9999 -9999 -9999 -9999 -9999 -9999 -9999 -9999 -9999 -9999 -9999 -9999 -9999 -9999 -9999 -9999 -9999 -9999 -9999 -9999 -9999 -9999 -9999 -9999 -9999 -9999 -9999 -9999 -9999 -9999 -9999 36.596 34.352 32.839 32.897 32.784 32.544 32.285 32.743 32.955 34.665 37.305 37.563 37.468 36.348 35.565 36.233 35.918 33.301 32.712 33.351 36.316 -9999 -9999 -9999 -9999 -9999 -9999 -9999 -9999 -9999 -9999 -9999 -9999 -9999 -9999 -9999 -9999 -9999 -9999 -9999 -9999 -9999 -9999 -9999 -9999 -9999 -9999 -9999 34.402 34.259 34.192 34.254 33.741 33.649 33.88 34.74 34.784 34.255 33.719 31.973 30.511 30.733 31 30.996 30.795 30.472 29.991 29.471 28.772 28.794 28.686 28.708 28.716 28.782 28.85 28.898 28.92 28.909 28.886 28.784 28.746 28.663 28.553 28.481 28.34 27.906 27.395 26.59001 25.401 25.225 25.648 25.578 26.304 29.193 30.711 31.512 31.439 31.231 31.049 30.502 29.677 28.973 27.999 27.713 27.695 28.825 29.568 29.706 29.6 29.467 29.38 29.175 29.043 28.608 27.986 26.962 25.792 24.897 23.899 23.14 22.707 23.828 26.745 27.922 28.18 -9999 -9999 -9999 -9999 -9999 -9999 -9999 -9999 -9999 -9999 -9999 -9999 -9999 -9999 -9999 -9999 -9999 -9999 -9999 29.589 29.82 29.806 29.877 29.685 28.444 28.379 28.236 28.036 27.669 27.21 26.983 26.199 23.929 20.361 18.75 18.401 18.456 18.431 18.409 18.262 17.737 18.833 18.859 17.567 17.274 17.47 16.955 17.166 17.784 17.803 16.907 16.079 15.795 16.828 16.414 15.446 14.843 14.757 14.657 14.539 14.283 14.153 14.096 13.952 13.805 13.734 13.49 13.399 13.418 13.419 13.346 13.333 13.237 12.779 12.705 12.456 12.446 12.392 12.252 12.52281 12.71204 12.752 12.483 12.294 12.228 12.074 11.878 11.793 11.577 11.416 11.286 11.142 10.972 10.81 10.751 10.64 10.697 10.55 10.363 10.238 10.314 10.292 10.318 10.688 10.899 11.414 13.524 16.005 16.692 15.876 14.994 14.289 13.874 12.449 11.224 10.606 10.615 10.591 10.546 10.384 11.224 12.101 12.059 12.251 13.053 15.682 14.304 9.75 10.723 10.855 8.766 8.504 8.359 8.656 9.398 12.42 14.263 14.258 15.197 14.493 12.558 11.334 12.898 15.423 15.194 12.366 8.871 7.751 7.753 7.685 7.665
-9999 -9999 -9999 -9999 -9999 -9999 -9999 -9999 -9999 -9999 -9999 -9999 -9999 -9999 -9999 -9999 -9999 -9999 -9999 -9999 -9999 -9999 -9999 -9999 -9999 -9999 -9999 -9999 -9999 -9999 -9999 -9999 -9999 -9999 -9999 -9999 -9999 -9999 -9999 -9999 -9999 -9999 -9999 -9999 -9999 -9999 -9999 -9999 -9999 -9999 -9999 -9999 -9999 -9999 -9999 -9999 -9999 -9999 -9999 -9999 -9999 -9999 -9999 -9999 -9999 -9999 -9999 -9999 -9999 -9999 -9999 -9999 -9999 -9999 -9999 -9999 -9999 -9999 -9999 -9999 -9999 -9999 -9999 -9999 -9999 -9999 -9999 -9999 -9999 -9999 -9999 -9999 -9999 -9999 -9999 -9999 -9999 -9999 -9999 -9999 -9999 -9999 -9999 -9999 -9999 -9999 -9999 -9999 -9999 -9999 -9999 -9999 -9999 -9999 -9999 -9999 -9999 -9999 -9999 -9999 -9999 -9999 -9999 -9999 -9999 -9999 -9999 -9999 -9999 -9999 -9999 -9999 -9999 -9999 -9999 -9999 -9999 -9999 -9999 -9999 -9999 -9999 -9999 -9999 -9999 -9999 -9999 -9999 -9999 -9999 -9999 -9999 -9999 -9999 -9999 -9999 -9999 -9999 -9999 -9999 -9999 -9999 -9999 -9999 -9999 -9999 -9999 -9999 -9999 -9999 -9999 -9999 -9999 -9999 -9999 -9999 -9999 -9999 -9999 -9999 -9999 -9999 -9999 -9999 -9999 -9999 -9999 -9999 -9999 -9999 -9999 -9999 -9999 -9999 -9999 -9999 -9999 -9999 -9999 -9999 -9999 -9999 -9999 -9999 -9999 -9999 40.932 40.152 38.51 34.95 33.277 32.597 32.435 32.331 32.24 32.878 32.949 34.605 35.46 35.479 35.809 34.269 33.433 32.99 32.031 32.345 33.115 35.381 37.085 38.765 -9999 -9999 -9999 -9999 -9999 -9999 -9999 -9999 -9999 -9999 -9999 -9999 -9999 -9999 -9999 -9999 -9999 -9999 -9999 -9999 -9999 -9999 -9999 -9999 30.977 30.471 29.664 29.84 30.013 30.226 30.204 30.874 31.759 32.858 32.981 33.013 32.131 30.713 30.692 30.509 30.645 30.707 30.248 29.773 29.473 29.058 28.865 28.767 28.71 28.733 28.729 28.77 28.78 28.808 28.83 28.756 28.65 28.606 28.501 28.401 28.273 28.106 27.775 27.316 26.438 24.97113 24.77272 24.819 25.151 25.975 28.018 29.764 31.183 31.267 31.241 30.883 30.658 30.405 29.786 27.93 27.027 26.781 27.269 28.537 29.376 29.291 29.285 29.038 28.559 28.324 28.243 27.972 27.19 27.076 26.452 25.495 23.942 22.266 22.308 24.468 26.695 27.709 28.108 28.096 25.175 23.561 23.629 23.477 23.129 21.342 20.892 19.42 -9999 -9999 -9999 -9999 -9999 -9999 -9999 29.087 29.405 29.533 29.739 29.86 29.853 29.548 28.789 28.752 28.703 28.531 28.401 27.888 27.509 27.128 26.207 22.871 20.166 18.657 18.253 18.162 17.983 17.795 17.777 20.355 18.181 17.569 17.444 17.478 17.234 17.631 19.157 21.706 17.952 16.571 16.806 17.826 20.654 18.245 15.938 17.005 18.392 18.018 16.479 14.71 14.258 14.024 13.907 13.872 13.654 13.516 13.501 13.443 13.384 13.323 13.274 13.395 13.068 13.066 13.045 12.92975 12.8071 12.6337 12.516 12.674 12.503 12.267 12.112 12.034 11.86 11.751 11.536 11.409 11.157 11.098 10.942 10.777 10.787 10.645 10.846 10.639 10.446 10.362 10.362 10.78 10.837 10.906 11.592 14.222 16.48 18.037 18.482 17.705 16.668 15.881 15.647 14.831 13.474 12.371 12.269 12.456 12.712 13.561 13.913 14.853 15.159 15.144 15.272 16.291 15.373 10.451 11.43 11.313 9.788 8.81 8.859 9.612 11.178 14.511 15.707 16.123 15.751 14.649 12.449 12.322 13.859 16.205 15.516 12.686 9.479 8.087 7.818 7.78 8.075
-9999 -9999 -9999 -9999 -9999 -9999 -9999 -9999 -9999 -9999 -9999 -9999 -9999 -9999 -9999 -9999 -9999 -9999 -9999 -9999 -9999 -9999 -9999 -9999 -9999 -9999 -9999 -9999 -9999 -9999 -9999 -9999 -9999 -9999 -9999 -9999 -9999 -9999 -9999 -9999 -9999 -9999 -9999 -9999 -9999 -9999 -9999 -9999 -9999 -9999 -9999 -9999 -9999 -9999 -9999 -9999 -9999 -9999 -9999 -9999 -9999 -9999 -9999 -9999 -9999 -9999 -9999 -9999 -9999 -9999 -9999 -9999 -9999 -9999 -9999 -9999 -9999 -9999 -9999 -9999 -9999 -9999 -9999 -9999 -9999 -9999 -9999 -9999 -9999 -9999 -9999 -9999 -9999 -9999 -9999 -9999 -9999 -9999 -9999 -9999 -9999 -9999 -9999 -9999 -9999 -9999 -9999 -9999 -9999 -9999 -9999 -9999 -9999 -9999 -9999 -9999 -9999 -9999 -9999 -9999 -9999 -9999 -9999 -9999 -9999 -9999 -9999 -9999 -9999 -9999 -9999 -9999 -9999 -9999 -9999 -9999 -9999 -9999 -9999 -9999 -9999 -9999 -9999 -9999 -9999 -9999 -9999 -9999 -9999 -9999 -9999 -9999 -9999 -9999 -9999 -9999 -9999 -9999 -9999 -9999 -9999 -9999 -9999 -9999 -9999 -9999 -9999 -9999 -9999 -9999 -9999 -9999 -9999 -9999 -9999 -9999 -9999 -9999 -9999 -9999 -9999 -9999 -9999 -9999 -9999 -9999 -9999 -9999 -9999 -9999 -9999 -9999 -9999 -9999 -9999 -9999 -9999 -9999 -9999 -9999 -9999 -9999 -9999 -9999 -9999 41.416 41.274 40.936 40.754 39.457 37.096 35.508 33.078 32.409 32.164 32.103 32.557 32.662 33.04 33.878 35.64 34.032 31.942 31.906 31.734 32.288 33.61 35.1 36.515 38.314 38.961 38.587 38.392 38.488 38.67 38.766 38.739 38.766 38.507 37.756 36.532 36.191 36.256 36.92 37.445 37.275 36.638 35.617 35.545 36.258 36.41 35.49 31.944 30.982 30.524 30.321 30.322 29.839 29.173 28.812 28.904 29.166 29.83 31.206 31.847 30.567 29.875 30.066 30.189 30.154 30.386 30.743 30.226 29.684 29.33 29.215 29.066 28.756 28.749 28.724 28.713 28.722 28.694 28.666 28.614 28.541 28.512 28.494 28.391 28.187 28.015 27.797 27.609 27.17 26.107 25.30499 24.9073 24.556 24.172 25.147 26.435 28.072 30.309 31.259 31.114 30.811 30.69 30.701 30.045 29.399 27.875 26.415 25.77 27.104 28.659 28.756 28.733 28.438 28.329 27.412 27.379 27.222 27.53 27.242 26.525 26.159 24.461 21.885 21.848 22.735 25.846 26.901 27.383 27.808 27.627 26.626 24.516 23.578 23.222 21.851 21.324 19.383 19.492 20.033 21.142 25.171 26.837 28.312 28.682 28.486 29.018 29.342 29.605 29.711 29.802 29.811 29.602 28.994 28.57 28.302 28.073 27.775 27.629 27.232 26.185 25.277 23.349 20.008 18.568 18.374 18.3 18.298 18.283 20.331 18.206 18.146 17.908 19.677 20.829 19.75 20.227 22.375 20.632 18.608 17.531 19.074 21.669 22.118 21.354 21.185 22.27 20.814 18.544 16.123 14.755 14.161 13.915 13.857 13.85 13.686 13.649 13.556 13.393 13.438 13.451 13.565 13.36209 13.23199 13.068 12.9519 13.00238 12.86688 12.576 12.651 12.326 12.159 11.996 11.911 11.707 11.502 11.441 11.483 11.415 11.151 11.003 10.792 10.615 10.518 10.801 10.588 10.629 10.532 10.979 11.139 11.476 12.535 14.32 16.708 18.39 19.09 19.228 19.009 18.808 18.076 17.37 17.015 16.385 15.579 15.018 15.166 15.257 16.135 16.543 17.112 17.527 17.451 16.93 16.823 16.261 12.801 12.893 12.275 10.736 10.102 10.266 11.205 14.343 17.32 17.349 17.415 16.704 15.465 13.779 13.507 15.291 16.841 16.17 13.715 10.429 8.43 7.955 8.093 8.182
-9999 -9999 -9999 -9999 -9999 -9999 -9999 -9999 -9999 -9999 -9999 -9999 -9999 -9999 -9999 -9999 -9999 -9999 -9999 -9999 -9999 -9999 -9999 -9999 -9999 -9999 -9999 -9999 -9999 -9999 -9999 -9999 -9999 -9999 -9999 -9999 -9999 -9999 -9999 -9999 -9999 -9999 -9999 -9999 -9999 -9999 -9999 -9999 -9999 -9999 -9999 -9999 -9999 -9999 -9999 -9999 -9999 -9999 -9999 -9999 -9999 -9999 -9999 -9999 -9999 -9999 -9999 -9999 -9999 -9999 -9999 -9999 -9999 -9999 -9999 -9999 -9999 -9999 -9999 -9999 -9999 -9999 -9999 -9999 -9999 -9999 -9999 -9999 -9999 -9999 -9999 -9999 -9999 -9999 -9999 -9999 -9999 -9999 -9999 -9999 -9999 -9999 -9999 -9999 -9999 -9999 -9999 -9999 -9999 -9999 -9999 -9999 -9999 -9999 -9999 -9999 -9999 -9999 -9999 -9999 -9999 -9999 -9999 -9999 -9999 -9999 -9999 -9999 -9999 -9999 -9999 -9999 -9999 -9999 -9999 -9999 -9999 -9999 -9999 -9999 -9999 -9999 -9999 -9999 -9999 -9999 -9999 -9999 -9999 -9999 -9999 -9999 -9999 -9999 -9999 -9999 -9999 -9999 -9999 -9999 -9999 -9999 -9999 -9999 -9999 -9999 -9999 -9999 -9999 -9999 -9999 -9999 -9999 -9999 -9999 -9999 -9999 -9999 -9999 -9999 -9999 -9999 -9999 -9999 -9999 -9999 -9999 -9999 -9999 -9999 -9999 -9999 -9999 -9999 -9999 -9999 -9999 -9999 -9999 -9999 -9999 -9999 -9999 -9999 -9999 41.336 41.213 41.208 40.969 40.27 39.653 37.636 35.194 33.041 32.149 32.015 31.88 31.757 31.758 32.287 33.448 32.328 31.559 31.312 31.345 31.486 32.502 34.42 36.478 38.156 38.559 38.322 38.233 38.393 38.647 38.744 38.686 38.637 38.374 38.011 37.224 36.942 37.564 37.936 37.914 37.863 37.892 37.318 36.957 36.917 36.873 36.423 34.773 33.145 32.659 33.036 32.915 31.32 31.079 30.666 30.022 28.609 28.633 29.591 30.325 29.368 29.277 29.446 29.599 29.888 30.278 30.389 29.891 29.478 29.201 29.032 28.924 28.878 28.756 28.639 28.604 28.651 28.621 28.528 28.493 28.456 28.48 28.576 28.299 28.051 27.803 27.552 26.948 26.708 26.321 26.096 25.57827 24.69628 23.8414 23.86879 24.052 26.288 29.034 30.785 30.939 30.659 30.512 30.759 30.463 29.718 28.736 27.251 25.376 25.876 27.157 28.212 28.457 27.976 27.354 25.803 24.824 25.253 26.023 26.056 26.102 25.565 24.228 21.751 21.773 21.981 24.525 25.783 26.459 26.668 27.119 26.678 25.515 24.228 23.471 22.416 21.435 20.671 19.519 20.834 22.858 24.757 25.245 26.201 27.114 28.206 28.555 28.968 29.279 29.511 29.549 29.454 29.212 28.834 28.658 28.473 28.015 27.563 27.326 26.572 26.177 25.595 24.564 23.459 20.71 18.699 18.702 19.269 20.69 21.065 20.167 19.664 20.931 21.859 21.888 21.182 21.386 22.402 21.532 20.438 21.055 22.873 23.483 23.407 23.275 23.201 23.077 21.59 18.662 15.979 14.862 14.211 13.888 13.793 13.649 13.824 13.604 13.539 13.658 13.466 13.39963 13.43707 13.36054 13.367 13.235 12.925 12.851 12.682 12.44 12.373 12.193 12.068 11.741 11.673 11.594 11.548 11.515 11.341 11.244 11.132 11.101 10.982 10.884 10.937 11.041 10.915 10.896 11.234 12.857 14.024 14.779 15.885 17.126 18.275 19.239 19.508 19.709 19.577 19.767 19.744 19.061 18.974 18.605 18.034 17.829 18.267 18.731 18.762 19.502 19.111 18.917 18.655 18.49 17.799 16.891 16.309 15.208 16.092 16.158 15.307 16.092 16.07 16.771 17.546 17.617 17.553 17.176 16.377 14.981 14.228 15.685 17.054 16.639 14.216 10.319 9.179 8.594 8.359999 8.255
-9999 -9999 -9999 -9999 -9999 -9999 -9999 -9999 -9999 -9999 -9999 -9999 -9999 -9999 -9999 -9999 -9999 -9999 -9999 -9999 -9999 -9999 -9999 -9999 -9999 -9999 -9999 -9999 -9999 -9999 -9999 -9999 -9999 -9999 -9999 -9999 -9999 -9999 -9999 -9999 -9999 -9999 -9999 -9999 -9999 -9999 -9999 -9999 -9999 -9999 -9999 -9999 -9999 -9999 -9999 -9999 -9999 -9999 -9999 -9999 -9999 -9999 -9999 -9999 -9999 -9999 -9999 -9999 -9999 -9999 -9999 -9999 -9999 -9999 -9999 -9999 -9999 -9999 -9999 -9999 -9999 -9999 -9999 -9999 -9999 -9999 -9999 -9999 -9999 -9999 -9999 -9999 -9999 -9999 -9999 -9999 -9999 -9999 -9999 -9999 -9999 -9999 -9999 -9999 -9999 -9999 -9999 -9999 -9999 -9999 -9999 -9999 -9999 -9999 -9999 -9999 -9999 -9999 -9999 -9999 -9999 -9999 -9999 -9999 -9999 -9999 -9999 -9999 -9999 -9999 -9999 -9999 -9999 -9999 -9999 -9999 -9999 -9999 -9999 -9999 -9999 -9999 -9999 -9999 -9999 -9999 -9999 -9999 -9999 -9999 -9999 -9999 -9999 -9999 -9999 -9999 -9999 -9999 -9999 -9999 -9999 -9999 -9999 -9999 -9999 -9999 -9999 -9999 -9999 -9999 -9999 -9999 -9999 -9999 -9999 -9999 -9999 -9999 -9999 -9999 -9999 -9999 -9999 -9999 -9999 -9999 -9999 -9999 -9999 -9999 -9999 -9999 -9999 -9999 -9999 -9999 -9999 -9999 -9999 -9999 -9999 -9999 -9999 -9999 41.332 41.278 41.201 41.028 40.63 38.521 36.968 35.423 34.199 33.021 32.154 31.925 31.811 31.757 31.701 31.501 31.28 31.475 31.35 31.209 31.08 31.009 31.66 34.615 36.628 36.689 36.728 36.622 36.993 38.255 38.562 38.704 38.69 38.459 38.277 38.212 38.129 38.317 38.379 38.648 38.279 38.191 38.143 37.838 37.417 37.052 36.977 36.866 36.559 36.043 35.818 35.782 35.454 33.851 33.941 34.321 32.349 29.716 28.373 28.456 28.402 28.516 28.797 28.938 29.116 29.323 29.485 29.509 29.4 29.149 28.898 28.867 28.768 28.64 28.575 28.501 28.496 28.434 28.406 28.316 28.27 28.258 28.271 28.309 28.082 27.79 27.582 27.189 26.616 26.526 26.344 26.277 26.278 25.70642 24.89814 24.26538 23.98191 24.7125 27.476 29.287 30.577 30.506 30.469 30.589 30.104 29.69 28.855 27.613 25.967 25.322 25.547 26.159 26.739 26.587 26.386 25.886 23.88 23.172 23.439 23.396 22.786 22.618 22.386 21.629 21.486 21.576 22.935 23.091 23.39 24.308 25.625 25.926 25.639 24.821 23.831 22.917 21.855 21.393 21.107 21.567 22.532 23.422 24.957 26.835 27.742 28.278 28.425 28.672 28.912 28.991 28.944 28.835 28.651 28.642 28.588 28.441 27.716 26.737 25.491 24.296 24.667 25.329 25.193 24.774 23.514 22.286 22.545 22.542 21.971 22.237 21.871 21.667 21.565 21.206 20.475 19.99 21.167 22.436 22.342 22.758 22.929 23.053 22.879 22.855 22.926 22.89 22.784 22.211 19.848 16.855 14.979 14.297 13.993 13.819 13.595 13.764 13.712 13.575 13.55 13.547 13.39825 13.29595 13.189 13.154 13.085 12.935 12.844 12.613 12.425 12.305 12.266 12.173 11.85 11.7 11.559 11.554 11.436 11.296 11.118 11.117 11.091 11.458 11.292 11.194 12.156 12.881 13.267 14.585 15.574 16.647 18.109 18.199 18.804 19.578 19.738 19.896 19.982 20.039 20.157 20.182 20.402 20.737 20.168 19.835 19.534 20.072 20.646 20.001 19.841 19.495 19.197 18.655 18.442 17.82 17.395 16.868 16.479 16.194 16.304 16.454 16.55 16.565 16.803 16.92 17.23 17.455 17.683 17.53 16.059 15.131 16.23 17.451 16.664 13.273 11.926 12.743 10.699 8.949 8.858
-9999 -9999 -9999 -9999 -9999 -9999 -9999 -9999 -9999 -9999 -9999 -9999 -9999 -9999 -9999 -9999 -9999 -9999 -9999 -9999 -9999 -9999 -9999 -9999 -9999 -9999 -9999 -9999 -9999 -9999 -9999 -9999 -9999 -9999 -9999 -9999 -9999 -9999 -9999 -9999 -9999 -9999 -9999 -9999 -9999 -9999 -9999 -9999 -9999 -9999 -9999 -9999 -9999 -9999 -9999 -9999 -9999 -9999 -9999 -9999 -9999 -9999 -9999 -9999 -9999 -9999 -9999 -9999 -9999 -9999 -9999 -9999 -9999 -9999 -9999 -9999 -9999 -9999 -9999 -9999 -9999 -9999 -9999 -9999 -9999 -9999 -9999 -9999 -9999 -9999 -9999 -9999 -9999 -9999 -9999 -9999 -9999 -9999 -9999 -9999 -9999 -9999 -9999 -9999 -9999 -9999 -9999 -9999 -9999 -9999 -9999 -9999 -9999 -9999 -9999 -9999 -9999 -9999 -9999 -9999 -9999 -9999 -9999 -9999 -9999 -9999 -9999 -9999 -9999 -9999 -9999 -9999 -9999 -9999 -9999 -9999 -9999 -9999 -9999 -9999 -9999 -9999 -9999 -9999 -9999 -9999 -9999 -9999 -9999 -9999 -9999 -9999 -9999 -9999 -9999 -9999 -9999 -9999 -9999 -9999 -9999 -9999 -9999 -9999 -9999 -9999 -9999 -9999 -9999 -9999 -9999 -9999 -9999 -9999 -9999 -9999 -9999 -9999 -9999 -9999 -9999 -9999 -9999 -9999 -9999 -9999 -9999 -9999 -9999 -9999 -9999 -9999 -9999 -9999 -9999 -9999 -9999 -9999 -9999 -9999 -9999 -9999 -9999 41.562 41.324 41.002 40.303 39.913 40.236 37.281 36.075 35.501 35.55 33.884 32.606 31.931 31.718 31.567 31.689 31.799 31.255 31.285 30.988 30.743 30.575 30.369 30.464 32.405 33.237 33.25 33.915 34.65 36.722 38.212 38.455 38.718 38.528 38.37 38.021 37.789 37.033 36.589 37.385 37.829 38.205 38.3 38.141 37.795 37.544 37.392 37.227 36.938 36.705 36.516 36.254 36.223 35.941 35.421 35.66 35.873 34.25 30.627 29.867 28.802 28.328 28.352 28.395 28.389 28.518 28.702 28.88 28.85 28.732 28.758 28.689 28.669 28.587 28.429 28.446 28.401 28.432 28.33 28.207 28.145 28.06 28.072 28.04 28.043 27.85 27.602 27.375 26.789 26.593 26.48 26.361 26.507 26.462 26.204 25.891 25.22823 25.01411 25.46809 26.265 27.522 29.286 30.199 30.283 30.02 29.726 29.525 29.076 28.066 27.28 25.653 24.379 24.126 24.195 24.028 24.34 23.912 23.096 22.372 22.16 22.292 22.059 21.795 21.385 21.518 21.433 21.387 21.339 21.266 21.34 21.608 22.73 23.197 23.779 24.268 23.995 23.322 22.291 21.772 20.539 19.155 19.705 20.602 22.018 24.642 26.74 27.635 28.164 28.183 28.303 28.338 28.274 28.108 28.191 28.412 28.616 28.14 27.533 26.361 24.82 23.274 22.552 23.292 24.255 24.618 24.394 23.726 23.622 23.27 23.071 23.03 22.002 21.083 20.096 18.69 17.767 17.901 19.688 21.78 21.872 22.294 22.434 21.891 20.35 20.366 21.91 22.195 21.16 19.559 18.808 16.537 14.494 14.435 14.129 13.983 13.835 13.773 13.747 13.771 13.693 13.78534 13.5104 13.461 13.226 13.154 13.064 12.934 12.79 12.57 12.297 12.261 12.192 12.153 12.052 11.804 11.659 11.659 11.475 11.268 11.165 11.168 11.509 12.104 12.503 13.528 15.347 16.257 16.853 17.433 17.625 18.113 18.883 19.28 19.546 19.778 20.044 20.248 20.302 20.196 20.182 20.478 21.031 21.429 20.857 21.061 20.943 20.974 20.937 20.594 20.453 20.024 19.446 19.007 18.28 17.607 17.44 17.053 16.421 16.003 15.775 15.679 15.914 16.116 16.405 16.487 16.572 16.566 16.342 17.517 17.721 17.762 17.626 17.436 15.517 14.295 15.356 15.24 12.076 10.019 9.729
-9999 -9999 -9999 -9999 -9999 -9999 -9999 -9999 -9999 -9999 -9999 -9999 -9999 -9999 -9999 -9999 -9999 -9999 -9999 -9999 -9999 -9999 -9999 -9999 -9999 -9999 -9999 -9999 -9999 -9999 -9999 -9999 -9999 -9999 -9999 -9999 -9999 -9999 -9999 -9999 -9999 -9999 -9999 -9999 -9999 -9999 -9999 -9999 -9999 -9999 -9999 -9999 -9999 -9999 -9999 -9999 -9999 -9999 -9999 -9999 -9999 -9999 -9999 -9999 -9999 -9999 -9999 -9999 -9999 -9999 -9999 -9999 -9999 -9999 -9999 -9999 -9999 -9999 -9999 -9999 -9999 -9999 -9999 -9999 -9999 -9999 -9999 -9999 -9999 -9999 -9999 -9999 -9999 -9999 -9999 -9999 -9999 -9999 -9999 -9999 -9999 -9999 -9999 -9999 -9999 -9999 -9999 -9999 -9999 -9999 -9999 -9999 -9999 -9999 -9999 -9999 -9999 -9999 -9999 -9999 -9999 -9999 -9999 -9999 -9999 -9999 -9999 -9999 -9999 -9999 -9999 -9999 -9999 -9999 -9999 -9999 -9999 -9999 -9999 -9999 -9999 -9999 -9999 -9999 -9999 -9999 -9999 -9999 -9999 -9999 -9999 -9999 -9999 -9999 -9999 -9999 -9999 -9999 -9999 -9999 -9999 -9999 -9999 -9999 -9999 -9999 -9999 -9999 -9999 -9999 -9999 -9999 -9999 -9999 -9999 -9999 -9999 -9999 -9999 -9999 -9999 -9999 -9999 -9999 -9999 -9999 -9999 -9999 -9999 -9999 -9999 -9999 -9999 -9999 -9999 -9999 -9999 -9999 -9999 -9999 -9999 -9999 -9999 41.616 41.339 40.969 40.145 38.478 37.807 36.968 37.738 39.042 38.313 36.812 34.838 34.095 33.244 33.138 32.787 33.479 33.634 33.298 31.956 31.212 31.11 30.952 30.731 30.265 30.543 31.479 31.935 32.548 33.878 35.844 37.041 37.289 37.405 37.34 36.202 34.939 33.047 33.478 35.624 36.511 37.464 37.992 37.701 37.546 37.321 37.626 37.254 36.942 36.662 36.494 36.297 36.111 35.761 35.586 35.669 35.907 35.085 32.651 32.106 31.666 29.586 28.431 28.083 27.961 27.901 28.087 28.32 28.337 28.42 28.471 28.493 28.398 28.257 28.098 27.98 27.828 28.026 28.127 28.016 27.867 27.801 27.81 27.785 27.731 27.564 27.357 27.143 26.757 26.54 26.39 26.38 26.586 26.401 26.161 25.881 25.5 25.24252 25.48554 25.25655 26.134 27.335 28.544 29.485 29.674 29.747 29.494 29.207 28.683 28.636 27.912 25.613 24.011 23.634 23.292 23.079 23.036 22.605 22.445 22.345 22.592 22.74 22.152 21.689 21.559 21.11 20.927 20.839 20.796 21.064 21.35 21.564 21.468 21.406 22.366 22.679 22.913 21.258 20.322 19.672 19.024 18.309 19.287 20.209 22.366 24.309 26.009 27.481 27.704 27.8 27.779 27.714 27.543 27.613 27.846 28.052 27.748 27.213 26.065 24.91 23.325 21.849 21.309 22.876 23.38 23.747 23.352 23.166 22.853 23.235 22.541 21.181 19.573 18.18 16.875 16.786 16.614 16.669 18.597 18.946 18.726 17.568 18.346 16.636 17.315 17.662 17.498 15.913 15.436 15.216 14.417 14.294 14.32198 14.24134 14.17268 14.04138 13.88939 13.83024 13.7953 13.86261 13.80013 13.557 13.484 13.522 13.226 13.191 13.005 12.815 12.572 12.24 12.2 12.184 12.109 11.862 11.498 11.466 11.487 11.337 11.281 11.229 11.277 12.422 14.99 15.611 16.023 17.268 18.01 18.44 19.113 19.095 19.226 19.51 19.776 19.859 20.003 20.309 20.691 20.681 20.709 20.753 20.852 21.219 21.519 21.463 21.632 21.58 21.204 21.166 20.957 20.646 20.462 20.141 19.608 18.788 17.913 16.898 17.195 16.513 15.326 14.976 14.726 14.771 14.987 15.384 15.827 15.24 13.983 12.34 14.279 17.615 17.771 17.884 17.379 16.702 16.734 17.138 16.492 15.234 13.165 12.137
-9999 -9999 -9999 -9999 -9999 -9999 -9999 -9999 -9999 -9999 -9999 -9999 -9999 -9999 -9999 -9999 -9999 -9999 -9999 -9999 -9999 -9999 -9999 -9999 -9999 -9999 -9999 -9999 -9999 -9999 -9999 -9999 -9999 -9999 -9999 -9999 -9999 -9999 -9999 -9999 -9999 -9999 -9999 -9999 -9999 -9999 -9999 -9999 -9999 -9999 -9999 -9999 -9999 -9999 -9999 -9999 -9999 -9999 -9999 -9999 -9999 -9999 -9999 -9999 -9999 -9999 -9999 -9999 -9999 -9999 -9999 -9999 -9999 -9999 -9999 -9999 -9999 -9999 -9999 -9999 -9999 -9999 -9999 -9999 -9999 -9999 -9999 -9999 -9999 -9999 -9999 -9999 -9999 -9999 -9999 -9999 -9999 -9999 -9999 -9999 -9999 -9999 -9999 -9999 -9999 -9999 -9999 -9999 -9999 -9999 -9999 -9999 -9999 -9999 -9999 -9999 -9999 -9999 -9999 -9999 -9999 -9999 -9999 -9999 -9999 -9999 -9999 -9999 -9999 -9999 -9999 -9999 -9999 -9999 -9999 -9999 -9999 -9999 -9999 -9999 -9999 -9999 -9999 -9999 -9999 -9999 -9999 -9999 -9999 -9999 -9999 -9999 -9999 -9999 -9999 -9999 -9999 -9999 -9999 -9999 -9999 -9999 -9999 -9999 -9999 -9999 -9999 -9999 -9999 -9999 -9999 -9999 -9999 -9999 -9999 -9999 -9999 -9999 -9999 -9999 -9999 -9999 -9999 -9999 -9999 -9999 -9999 -9999 -9999 -9999 -9999 -9999 -9999 -9999 -9999 -9999 -9999 -9999 -9999 -9999 -9999 -9999 41.812 41.605 41.358 41.006 40.409 38.425 37.846 38.512 39.705 38.361 35.461 35.182 36.991 37.929 36.427 35.286 35.119 34.917 33.889 34.098 33.468 32.108 31.137 31.029 30.89 30.656 30.224 31.001 31.396 30.888 30.968 31.865 32.271 32.595 34.154 34.385 33.186 31.536 31.104 31.819 32.51 33.347 35.094 36.526 37.077 36.769 36.562 36.875 36.759 36.647 36.309 36.202 35.7 34.368 32.432 30.815 32.182 33.819 34.563 31.388 30.469 30.576 28.886 28.248 27.701 27.725 27.636 27.573 27.943 28.109 28.195 28.214 28.124 28.111 28.033 27.771 27.482 27.135 28.033 28.051 27.866 27.822 27.611 27.583 27.557 27.481 27.334 27.126 26.965 26.626 26.492 26.374 26.606 26.452 26.278 26.054 25.805 25.611 25.43 25.31226 24.79095 24.982 25.766 26.798 27.581 28.819 29.438 29.681 29.275 29.114 28.741 28.581 27.673 26.082 24.272 24.014 23.839 23.646 23.665 23.591 23.875 24.604 24.951 24.948 22.595 21.554 21.394 21.066 20.843 20.378 20.576 20.469 20.456 20.617 20.994 21.042 21.511 21.89 20.69 19.708 19.322 19.047 18.16 18.192 19.394 20.816 22.613 24.671 26.995 27.257 27.358 27.274 27.316 27.302 27.288 27.518 27.615 27.47 27.07 26.118 25.166 23.587 21.265 20.168 20.666 20.556 20.411 21.201 22.502 23.413 21.93 20.72 19.617 17.697 16.715 16.183 16.123 15.927 15.743 15.932 15.882 16.06241 15.40238 15.08668 15.126 15.25 15.262 14.954 14.744 14.71 14.53809 14.51794 14.34004 14.26138 14.21662 14.16273 14.1974 14.0866 13.81794 13.74683 13.61824 13.482 13.439 13.358 13.485 13.547 13.3 13.1 12.932 12.76 12.331 12.271 12.172 11.95 12.163 11.483 11.351 11.631 11.359 11.242 11.33 11.508 13.566 16.036 16.868 17.521 18.17 19.11 19.438 19.284 19.402 19.62 19.707 19.811 19.877 20.064 20.283 20.563 20.698 20.719 20.872 20.972 21.169 21.375 21.559 21.57 21.577 21.277 21.049 20.919 20.861 20.698 20.662 19.79 18.782 17.913 16.639 16.772 16.462 15.295 14.31 13.888 13.604 13.714 13.878 13.835 13.061 10.825 9.847 11.809 14.733 17.119 17.471 17.808 17.574 17.807 17.951 17.522 16.452 16.045 13.993
-9999 -9999 -9999 -9999 -9999 -9999 -9999 -9999 -9999 -9999 -9999 -9999 -9999 -9999 -9999 -9999 -9999 -9999 -9999 -9999 -9999 -9999 -9999 -9999 -9999 -9999 -9999 -9999 -9999 -9999 -9999 -9999 -9999 -9999 -9999 -9999 -9999 -9999 -9999 -9999 -9999 -9999 -9999 -9999 -9999 -9999 -9999 -9999 -9999 -9999 -9999 -9999 -9999 -9999 -9999 -9999 -9999 -9999 -9999 -9999 -9999 -9999 -9999 -9999 -9999 -9999 -9999 -9999 -9999 -9999 -9999 -9999 -9999 -9999 -9999 -9999 -9999 -9999 -9999 -9999 -9999 -9999 -9999 -9999 -9999 -9999 -9999 -9999 -9999 -9999 -9999 -9999 -9999 -9999 -9999 -9999 -9999 -9999 -9999 -9999 -9999 -9999 -9999 -9999 -9999 -9999 -9999 -9999 -9999 -9999 -9999 -9999 -9999 -9999 -9999 -9999 -9999 -9999 -9999 -9999 -9999 -9999 -9999 -9999 -9999 -9999 -9999 -9999 -9999 -9999 -9999 -9999 -9999 -9999 -9999 -9999 -9999 -9999 -9999 -9999 -9999 -9999 -9999 -9999 -9999 -9999 -9999 -9999 -9999 -9999 -9999 -9999 -9999 -9999 -9999 -9999 -9999 -9999 -9999 -9999 -9999 -9999 -9999 -9999 -9999 -9999 -9999 -9999 -9999 -9999 -9999 -9999 -9999 -9999 -9999 -9999 -9999 -9999 -9999 -9999 -9999 -9999 -9999 -9999 -9999 -9999 -9999 -9999 -9999 -9999 -9999 -9999 -9999 -9999 -9999 -9999 -9999 -9999 -9999 -9999 -9999 42.186 41.97 41.715 41.391 40.892 40.027 39.401 40.196 40.246 40.122 36.762 33.355 32.928 33.922 35.387 33.355 32.917 33.028 32.585 32.633 32.593 32.425 31.312 31.326 31.247 30.952 30.796 30.565 30.359 30.684 30.552 30.408 30.481 30.804 30.763 30.831 31.015 30.765 30.149 29.977 30.136 30.178 30.306 31.46 32.811 33.216 32.982 32.435 33.721 33.314 32.489 34.601 35.057 33.422 30.112 28.906 28.726 28.681 28.933 28.939 28.859 28.552 28.327 28.317 28.138 27.472 27.596 27.556 27.495 27.828 28.074 28.138 28.147 28.1 27.899 27.759 27.408 27.273 26.819 28.28 28.126 27.903 27.64 27.549 27.451 27.348 27.271 27.164 27.016 26.874 26.654 26.557 26.477 26.32 26.244 26.127 25.958 25.867 25.86 25.539 25.26605 24.76275 24.561 24.575 25.284 25.805 27.478 28.498 28.958 28.551 28.484 28.584 28.386 27.693 26.108 25.167 26.005 26.954 26.925 26.88 26.255 26.278 26.747 26.628 26.584 24.821 22.072 22.582 22.501 21.606 20.592 20.407 20.376 20.292 20.104 20.401 20.558 20.765 20.723 20.004 19.416 19.176 18.882 18.219 17.533 18.724 20.604 23.49 25.888 26.957 27.04 27.06 27.043 27.129 27.281 27.101 27.264 27.361 27.335 26.996 25.944 25.155 23.679 21.075 19.62 19.29 18.889 18.542 18.885 20.722 23.153 23.457 19.957 18.344 16.885 16.496 16.046 15.777 15.667 15.598 15.41791 15.47135 15.47822 15.06165 15.02499 15.0946 15.00623 15.07272 14.86407 14.731 14.63182 14.40355 14.339 14.377 14.19 14.174 14.181 14.137 14.093 13.879 13.812 13.628 13.568 13.679 13.469 13.425 13.485 13.276 13.271 13.044 12.902 12.78 12.713 12.141 11.704 11.829 11.804 11.437 11.512 11.365 11.484 11.586 11.698 12.655 16.778 17.399 18.077 18.853 19.295 19.599 19.398 19.652 19.641 19.496 19.684 19.824 20.028 20.205 20.391 20.504 20.65 20.746 20.853 20.945 21.161 21.416 21.596 21.64 21.176 20.955 20.871 20.787 20.353 20.139 19.156 18.315 17.358 15.904 15.879 16.503 15.233 14.149 13.287 12.576 11.984 11.705 11.175 10.153 9.031999 8.82 9.102999 10.492 13.671 16.378 17.132 17.596 17.948 18.232 18.208 17.818 17.466 14.074
-9999 -9999 -9999 -9999 -9999 -9999 -9999 -9999 -9999 -9999 -9999 -9999 -9999 -9999 -9999 -9999 -9999 -9999 -9999 -9999 -9999 -9999 -9999 -9999 -9999 -9999 -9999 -9999 -9999 -9999 -9999 -9999 -9999 -9999 -9999 -9999 -9999 -9999 -9999 -9999 -9999 -9999 -9999 -9999 -9999 -9999 -9999 -9999 -9999 -9999 -9999 -9999 -9999 -9999 -9999 -9999 -9999 -9999 -9999 -9999 -9999 -9999 -9999 -9999 -9999 -9999 -9999 -9999 -9999 -9999 -9999 -9999 -9999 -9999 -9999 -9999 -9999 -9999 -9999 -9999 -9999 -9999 -9999 -9999 -9999 -9999 -9999 -9999 -9999 -9999 -9999 -9999 -9999 -9999 -9999 -9999 -9999 -9999 -9999 -9999 -9999 -9999 -9999 -9999 -9999 -9999 -9999 -9999 -9999 -9999 -9999 -9999 -9999 -9999 -9999 -9999 -9999 -9999 -9999 -9999 -9999 -9999 -9999 -9999 -9999 -9999 -9999 -9999 -9999 -9999 -9999 -9999 -9999 -9999 -9999 -9999 -9999 -9999 -9999 -9999 -9999 -9999 -9999 -9999 -9999 -9999 -9999 -9999 -9999 -9999 -9999 -9999 -9999 -9999 -9999 -9999 -9999 -9999 -9999 -9999 -9999 -9999 -9999 -9999 -9999 -9999 -9999 -9999 -9999 -9999 -9999 -9999 -9999 -9999 -9999 -9999 -9999 -9999 -9999 -9999 -9999 -9999 -9999 -9999 -9999 -9999 -9999 -9999 -9999 -9999 -9999 -9999 -9999 -9999 -9999 -9999 -9999 -9999 -9999 -9999 42.401 42.329 42.146 41.941 41.751 41.548 41.286 40.811 40.85 40.334 38.812 35.754 32.934 32.657 32.426 32.176 31.936 31.807 31.774 31.752 31.645 31.525 31.408 31.392 31.32 31.16 30.978 30.827 30.773 30.589 30.418 30.048 30.04 30.073 29.898 30.038 30.455 30.359 29.982 29.801 29.617 29.816 29.899 29.77 29.997 30.036 29.896 29.809 29.574 29.262 29.713 29.704 30.067 30.037 29.341 28.651 28.517 28.501 28.415 28.242 28.327 28.522 28.567 28.471 28.38 28.281 27.669 27.631 27.449 27.443 27.872 28.248 28.31 28.254 28.115 27.638 27.388 27.315 27.255 26.568 28.321 28.184 28.006 27.783 27.566 27.519 27.383 27.163 27.091 26.901 26.777 26.668 26.476 26.369 26.182 26.099 25.988 25.917 25.86 25.766 25.506 25.127 24.495 24.16975 24.05109 24.642 25.12 26.351 27.321 27.429 26.678 27.36 28.342 28.479 27.98 27.095 25.957 26.444 28.072 28.54 28.291 28.075 28.046 27.659 27.238 26.954 25.604 23.787 23.108 22.025 20.916 20.762 20.584 20.279 20.092 19.71 19.679 19.897 19.782 19.798 19.723 19.371 19.13 18.853 18.349 17.651 18.174 20.243 24.476 26.039 26.536 26.64 26.714 26.78 26.771 26.813 26.528 26.777 26.765 26.688 26.371 25.494 24.47 22.955 20.666 18.841 18.403 18.222 17.924 17.989 19.135 20.937 21.485 19.646 17.868 16.926 16.431 16.106 15.692 15.552 15.54014 15.41266 15.3562 15.314 15.051 14.84 14.934 14.766 15.302 15.32168 15.30165 14.91784 14.298 14.253 14.355 14.411 14.284 14.195 14.12 14.068 13.992 13.953 13.919 13.93 13.976 13.953 13.782 13.982 13.925 13.928 13.322 13.04 12.792 12.592 12.529 12.007 11.406 11.434 11.43 11.836 11.391 11.679 11.817 11.926 13.395 17.134 17.714 18.671 19.198 19.415 19.534 19.535 19.587 19.457 19.567 19.62 19.829 19.963 20.134 20.288 20.422 20.54 20.517 20.765 20.711 21.159 21.573 21.807 21.607 21.19 20.827 20.813 20.443 19.706 18.687 17.515 16.236 15.026 14.339 13.144 14.677 15.483 14.1 11.947 9.533 9.047 8.96 9.137999 8.557 8.427999 8.438 8.427999 8.590999 9.352 12.95 15.418 16.924 17.65 17.867 18.278 18.246 16.394 10.594
-9999 -9999 -9999 -9999 -9999 -9999 -9999 -9999 -9999 -9999 -9999 -9999 -9999 -9999 -9999 -9999 -9999 -9999 -9999 -9999 -9999 -9999 -9999 -9999 -9999 -9999 -9999 -9999 -9999 -9999 -9999 -9999 -9999 -9999 -9999 -9999 -9999 -9999 -9999 -9999 -9999 -9999 -9999 -9999 -9999 -9999 -9999 -9999 -9999 -9999 -9999 -9999 -9999 -9999 -9999 -9999 -9999 -9999 -9999 -9999 -9999 -9999 -9999 -9999 -9999 -9999 -9999 -9999 -9999 -9999 -9999 -9999 -9999 -9999 -9999 -9999 -9999 -9999 -9999 -9999 -9999 -9999 -9999 -9999 -9999 -9999 -9999 -9999 -9999 -9999 -9999 -9999 -9999 -9999 -9999 -9999 -9999 -9999 -9999 -9999 -9999 -9999 -9999 -9999 -9999 -9999 -9999 -9999 -9999 -9999 -9999 -9999 -9999 -9999 -9999 -9999 -9999 -9999 -9999 -9999 -9999 -9999 -9999 -9999 -9999 -9999 -9999 -9999 -9999 -9999 -9999 -9999 -9999 -9999 -9999 -9999 -9999 -9999 -9999 -9999 -9999 -9999 -9999 -9999 -9999 -9999 -9999 -9999 -9999 -9999 -9999 -9999 -9999 -9999 -9999 -9999 -9999 -9999 -9999 -9999 -9999 -9999 -9999 -9999 -9999 -9999 -9999 -9999 -9999 -9999 -9999 -9999 -9999 -9999 -9999 -9999 -9999 -9999 -9999 -9999 -9999 -9999 -9999 -9999 -9999 -9999 -9999 -9999 -9999 -9999 -9999 -9999 -9999 -9999 -9999 -9999 -9999 -9999 -9999 -9999 42.572 42.438 42.32 42.138 41.896 41.7 41.501 41.248 41.002 40.685 39.004 34.71 33.073 32.74 32.428 32.251 32.078 32.07 31.974 31.82 31.71 31.685 31.496 31.392 31.278 31.153 31.097 30.96 30.885 30.655 30.463 30.461 30.303 30.392 30.331 30.14 29.528 29.183 28.792 29.219 29.178 28.844 29.694 29.479 29.378 28.843 29.338 29.441 29.133 29.19 29.202 28.959 29.064 29.136 28.77 28.685 28.262 28.136 28.066 27.449 27.681 27.558 27.495 27.546 27.692 27.498 27.416 27.44 27.577 27.432 28.176 28.36 28.309 28.302 28.141 27.871 27.579 27.28 27.378 26.782 28.278 28.237 28.114 27.784 27.548 27.429 27.258 27.199 27.089 26.844 26.744 26.644 26.478 26.333 26.153 25.978 25.914 25.879 25.808 25.663 25.469 25.289 24.71 24.44831 24.0185 23.707 24.183 25.12 25.935 26.119 25.928 25.922 26.921 27.75 28.19 28.13 27.792 27.767 28.23 28.284 28.446 28.58 28.434 27.659 26.661 25.911 25.214 23.853 21.998 20.916 20.773 20.773 20.748 20.462 20.175 19.783 19.766 19.702 19.455 19.456 19.671 19.508 19.249 18.855 18.365 17.749 17.611 19.572 22.32 24.566 25.436 25.528 26.102 26.616 26.358 25.85 26.389 26.439 26.187 25.887 25.447 24.823 23.762 22.163 19.916 18.404 18.145 17.751 17.303 17.144 17.212 17.667 17.948 17.839 17.262 16.636 16.344 16.191 15.63512 15.4128 15.46784 15.416 15.289 15.204 15.074 14.895 14.792 14.557 15.409 15.564 15.289 14.773 14.401 14.451 14.378 14.319 14.272 14.175 14.126 14.101 14.112 14.28 14.561 14.3 14.447 14.41 14.259 14.188 14.224 14.387 14.216 13.24 12.585 12.528 12.096 11.895 11.727 11.661 11.658 11.768 11.584 11.789 12.04 12.67 14.376 17.613 18.576 19.6 19.66 19.732 19.723 19.562 19.571 19.422 19.276 19.33 19.682 19.96 20.254 20.169 20.258 20.433 20.533 20.711 20.758 21.167 21.524 21.68 21.696 21.226 20.488 20.231 19.529 18.429 16.178 14.904 13.738 12.952 12.525 12.349 12.033 15.073 14.089 10.642 9.361 8.72 8.651 8.368999 8.238 8.251 8.248 8.113 8.161 8.58 9.992 15.508 14.216 16.876 17.681 18.118 17.67 14.022 9.737
-9999 -9999 -9999 -9999 -9999 -9999 -9999 -9999 -9999 -9999 -9999 -9999 -9999 -9999 -9999 -9999 -9999 -9999 -9999 -9999 -9999 -9999 -9999 -9999 -9999 -9999 -9999 -9999 -9999 -9999 -9999 -9999 -9999 -9999 -9999 -9999 -9999 -9999 -9999 -9999 -9999 -9999 -9999 -9999 -9999 -9999 -9999 -9999 -9999 -9999 -9999 -9999 -9999 -9999 -9999 -9999 -9999 -9999 -9999 -9999 -9999 -9999 -9999 -9999 -9999 -9999 -9999 -9999 -9999 -9999 -9999 -9999 -9999 -9999 -9999 -9999 -9999 -9999 -9999 -9999 -9999 -9999 -9999 -9999 -9999 -9999 -9999 -9999 -9999 -9999 -9999 -9999 -9999 -9999 -9999 -9999 -9999 -9999 -9999 -9999 -9999 -9999 -9999 -9999 -9999 -9999 -9999 -9999 -9999 -9999 -9999 -9999 -9999 -9999 -9999 -9999 -9999 -9999 -9999 -9999 -9999 -9999 -9999 -9999 -9999 -9999 -9999 -9999 -9999 -9999 -9999 -9999 -9999 -9999 -9999 -9999 -9999 -9999 -9999 -9999 -9999 -9999 -9999 -9999 -9999 -9999 -9999 -9999 -9999 -9999 -9999 -9999 -9999 -9999 -9999 -9999 -9999 -9999 -9999 -9999 -9999 -9999 -9999 -9999 -9999 -9999 -9999 -9999 -9999 -9999 -9999 -9999 -9999 -9999 -9999 -9999 -9999 -9999 -9999 -9999 -9999 -9999 -9999 -9999 -9999 -9999 -9999 -9999 -9999 -9999 -9999 -9999 -9999 -9999 -9999 -9999 -9999 -9999 -9999 -9999 42.715 42.584 42.454 42.295 42.066 41.742 41.663 41.309 40.955 39.674 37.36 33.834 32.992 32.763 32.522 32.341 32.215 32.178 32.1 32.011 31.851 31.74 31.645 31.44 31.415 31.355 31.195 31.055 30.921 30.847 30.767 30.002 29.783 29.759 29.62 29.275 29.172 28.982 30.24 30.198 30.254 29.845 29.367 28.497 29.626 29.717 29.662 29.263 29.364 29.143 28.286 27.947 27.743 28.461 27.88 28.398 28.367 28.352 28.422 28.416 28.289 27.984 27.674 27.593 27.536 27.425 27.332 27.227 27.442 27.439 27.446 27.396 27.695 27.711 27.624 27.6 27.623 27.358 27.25 27.072 28.309 28.291 28.088 27.736 27.466 27.305 27.15 26.979 26.905 26.93 26.755 26.623 26.479 26.303 26.124 25.846 25.881 25.869 25.794 25.667 25.45 25.308 25.083 24.848 24.21599 23.4816 23.713 24.339 24.682 25.029 25.225 25.186 25.389 26.563 27.876 27.866 27.565 27.558 27.673 27.961 28.277 28.271 27.755 27.472 25.257 23.793 23.667 22.597 21.28 20.725 20.633 20.844 20.854 20.498 20.25304 19.93031 19.96568 19.957 19.665 19.594 19.58 19.508 19.223 18.835 18.396 17.895 17.453 18.448 19.598 22.008 22.727 22.664 24.002 25.688 25.298 24.455 25.419 25.548 25.219 24.787 24.405 24.014 23.157 22.034 20.691 19.4 18.499 17.614 17.153 16.925 16.946 17.103 17.181 17.137 16.865 16.582 16.6 16.6 15.70967 15.42418 15.4455 15.45 15.269 15.182 15.092 14.884 14.744 14.687 15.377 15.598 15.223 14.792 14.495 14.289 14.462 14.341 14.25 14.139 14.149 14.173 14.257 14.595 14.75 14.738 16.584 17.499 16.907 14.903 14.03 13.894 13.669 13.266 12.928 12.625 12.317 12.101 12.101 12.086 12.07 12.013 11.977 12.428 12.988 14.546 17.049 18.656 19.571 19.86 19.809 19.59 19.026 19.048 18.955 18.851 18.843 19.161 19.514 20.107 20.502 20.329 20.225 20.464 20.776 20.625 20.788 20.546 21.21 21.061 21.109 20.499 20.207 19.717 18.889 17.301 14.429 12.245 11.841 11.707 11.782 11.57 11.144 11.058 13.896 12.774 9.222999 8.719 8.647 8.22 8.215 8.151 8.016 7.785 7.8 8.277 8.995 12.702 13.812 12.879 13.878 13.601 14.643 12.079 9.238
-9999 -9999 -9999 -9999 -9999 -9999 -9999 -9999 -9999 -9999 -9999 -9999 -9999 -9999 -9999 -9999 -9999 -9999 -9999 -9999 -9999 -9999 -9999 -9999 -9999 -9999 -9999 -9999 -9999 -9999 -9999 -9999 -9999 -9999 -9999 -9999 -9999 -9999 -9999 -9999 -9999 -9999 -9999 -9999 -9999 -9999 -9999 -9999 -9999 -9999 -9999 -9999 -9999 -9999 -9999 -9999 -9999 -9999 -9999 -9999 -9999 -9999 -9999 -9999 -9999 -9999 -9999 -9999 -9999 -9999 -9999 -9999 -9999 -9999 -9999 -9999 -9999 -9999 -9999 -9999 -9999 -9999 -9999 -9999 -9999 -9999 -9999 -9999 -9999 -9999 -9999 -9999 -9999 -9999 -9999 -9999 -9999 -9999 -9999 -9999 -9999 -9999 -9999 -9999 -9999 -9999 -9999 -9999 -9999 -9999 -9999 -9999 -9999 -9999 -9999 -9999 -9999 -9999 -9999 -9999 -9999 -9999 -9999 -9999 -9999 -9999 -9999 -9999 -9999 -9999 -9999 -9999 -9999 -9999 -9999 -9999 -9999 -9999 -9999 -9999 -9999 -9999 -9999 -9999 -9999 -9999 -9999 -9999 -9999 -9999 -9999 -9999 -9999 -9999 -9999 -9999 -9999 -9999 -9999 -9999 -9999 -9999 -9999 -9999 -9999 -9999 -9999 -9999 -9999 -9999 -9999 -9999 -9999 -9999 -9999 -9999 -9999 -9999 -9999 -9999 -9999 -9999 -9999 -9999 -9999 -9999 -9999 -9999 -9999 -9999 -9999 -9999 -9999 -9999 -9999 -9999 -9999 -9999 -9999 -9999 42.863 42.689 42.541 42.337 42.185 41.725 41.555 41.336 39.575 36.122 34.389 33.313 33.122 32.841 32.632 32.372 32.365 31.468 31.366 32.127 31.97 31.832 31.729 31.636 31.635 31.507 31.32 31.224 31.077 30.158 31.241 31.301 31.028 30.708 30.583 30.542 30.306 30.347 30.198 30.151 30.052 29.769 29.501 29.502 29.562 29.338 29.316 29.409 29.254 29.131 28.91 28.72 28.71 28.694 28.477 28.36 28.296 28.173 28.102 27.91 27.726 27.609 27.636 27.375 27.359 27.259 27.189 27.104 27.135 27.474 27.431 27.404 27.349 27.436 27.082 27.171 26.916 26.793 26.092 26.221 26.801 27.93 27.867 27.638 27.339 27.18 27.018 26.864 26.79 26.766 26.78 26.729 26.455 26.326 26.132 25.917 25.925 25.903 25.825 25.665 25.455 25.319 25.295 25.235 24.947 24.1079 23.68238 24.052 24.682 24.644 24.472 24.234 24.638 25.695 26.811 27.299 26.872 26.202 27.092 27.5 27.659 27.567 26.981 26.031 23.942 22.3 22.186 21.605 21.18 20.608 20.496 20.85883 20.64346 20.07663 19.98555 19.79511 19.79843 20.17873 20.03747 19.647 19.409 19.24 19.004 18.808 18.431 18.027 17.549 17.497 18.628 19.606 20.536 20.862 22.322 23.927 22.499 22.094 24.378 24.956 24.333 23.673 23.258 22.929 22.763 22.297 21.547 20.401 18.684 17.465 16.907 16.6509 16.68517 16.51135 16.59 16.603 16.599 16.58 16.53878 16.6 16.6 15.566 15.451 15.417 15.348 15.26 15.104 14.79 14.785 14.953 15.137 15.271 14.966 14.816 14.733 14.551 14.458 14.614 14.328 14.446 14.246 14.479 14.905 15.07 14.995 17.334 18.876 18.681 17.431 15.033 13.827 13.371 13.493 13.337 13.28 13.048 12.71 12.464 12.669 12.641 12.377 12.501 12.868 14.02 15.669 17.196 18.62 19.648 20.261 20.075 19.743 18.849 18.555 18.649 18.403 18.61 18.78 19.101 19.585 20.214 20.494 20.548 20.53 20.481 20.031 18.472 17.288 17.352 15.342 13.482 16.25 19.143 19.516 19.521 18.349 16.201 12.858 11.969 11.766 11.7 11.511 11.104 10.34 9.739 10.071 12.775 10.677 8.609 8.465999 8.31 8.163 7.9 7.887 7.833 7.763 7.861 7.942 9.633 11.884 11.793 11.658 11.376 11.027 10.195 8.071
-9999 -9999 -9999 -9999 -9999 -9999 -9999 -9999 -9999 -9999 -9999 -9999 -9999 -9999 -9999 -9999 -9999 -9999 -9999 -9999 -9999 -9999 -9999 -9999 -9999 -9999 -9999 -9999 -9999 -9999 -9999 -9999 -9999 -9999 -9999 -9999 -9999 -9999 -9999 -9999 -9999 -9999 -9999 -9999 -9999 -9999 -9999 -9999 -9999 -9999 -9999 -9999 -9999 -9999 -9999 -9999 -9999 -9999 -9999 -9999 -9999 -9999 -9999 -9999 -9999 -9999 -9999 -9999 -9999 -9999 -9999 -9999 -9999 -9999 -9999 -9999 -9999 -9999 -9999 -9999 -9999 -9999 -9999 -9999 -9999 -9999 -9999 -9999 -9999 -9999 -9999 -9999 -9999 -9999 -9999 -9999 -9999 -9999 -9999 -9999 -9999 -9999 -9999 -9999 -9999 -9999 -9999 -9999 -9999 -9999 -9999 -9999 -9999 -9999 -9999 -9999 -9999 -9999 -9999 -9999 -9999 -9999 -9999 -9999 -9999 -9999 -9999 -9999 -9999 -9999 -9999 -9999 -9999 -9999 -9999 -9999 -9999 -9999 -9999 -9999 -9999 -9999 -9999 -9999 -9999 -9999 -9999 -9999 -9999 -9999 -9999 -9999 -9999 -9999 -9999 -9999 -9999 -9999 -9999 -9999 -9999 -9999 -9999 -9999 -9999 -9999 -9999 -9999 -9999 -9999 -9999 -9999 -9999 -9999 -9999 -9999 -9999 -9999 -9999 -9999 -9999 -9999 -9999 -9999 -9999 -9999 -9999 -9999 -9999 -9999 -9999 -9999 -9999 -9999 -9999 -9999 -9999 -9999 -9999 -9999 42.822 42.671 42.477 42.223 42.073 41.728 41.375 40.937 38.675 34.929 33.671 33.316 33.232 33.012 32.734 32.509 31.08 31.94 32.267 32.036 31.018 30.921 30.53 30.813 30.836 30.495 30.341 30.345 31.019 31.204 31.198 31.233 31.311 31.123 30.746 30.543 30.384 30.329 30.156 30.085 29.954 29.609 29.454 29.554 29.561 29.303 29.206 29.266 29.213 28.946 28.646 28.577 28.497 28.378 28.289 28.239 28.139 28.053 27.927 27.74 27.534 27.342 27.369 27.28 27.265 27.194 27.239 27.218 27.343 27.59 27.67 27.547 27.457 27.297 27.283 27.368 27.982 27.308 27.178 27.568 26.108 27.219 27.604 27.52 27.249 27.054 26.896 26.748 26.685 26.671 26.648 26.568 26.647 26.381 26.207 26.042 25.982 25.928 25.861 25.733 25.497 25.289 25.247 25.316 24.994 24.341 23.82548 23.93838 24.349 24.312 24.273 24.101 24.255 24.469 24.978 25.63 25.097 24.867 26.445 27.036 26.061 25.283 24.089 23.455 22.192 21.568 21.263 21.228 20.966 20.53147 20.42503 20.6125 20.03081 19.717 19.644 19.563 19.489 19.597 20.45603 20.222 19.233 18.945 18.776 18.691 18.459 18.153 17.836 17.321 17.588 18.6 18.74 19.644 21.286 23.064 20.425 20.487 22.229 24.527 23.117 22.029 21.617 21.736 22.222 22.057 20.9 19.396 17.734 16.86403 16.45217 16.5767 16.904 16.41899 16.17 16.31685 16.389 16.35146 16.33019 16.304 16.6 15.764 15.587 15.422 15.179 15.247 15.273 15.191 15.089 15.239 15.28 15.303 15.04 14.816 15.15 15.414 15.74 15.725 15.472 15.392 15.067 15.37 15.386 15.304 17.416 19.051 19.463 18.797 17.434 14.005 13.492 13.219 13.311 13.589 13.66 13.593 13.169 13.136 13.354 13.374 13.16 13.238 14.1 15.688 17.076 18.56 19.803 20.599 20.577 20.152 19.685 18.982 18.367 18.51 18.469 18.635 18.737 19.072 19.572 19.983 20.186 20.191 20.316 19.796 19.077 16.133 13.295 11.851 10.381 10.13 11.046 15.147 18.575 19.622 17.731 15.438 12.596 11.529 11.513 11.234 10.929 10.324 9.682 8.774999 8.436 11.823 11.57 10.6 8.292 8.246557 8.10019 8.088759 8.230304 8.330993 8.324371 8.218017 8.121785 8.340226 8.737613 10.176 11.104 11.17783 10.26 9.152 8.020156
-9999 -9999 -9999 -9999 -9999 -9999 -9999 -9999 -9999 -9999 -9999 -9999 -9999 -9999 -9999 -9999 -9999 -9999 -9999 -9999 -9999 -9999 -9999 -9999 -9999 -9999 -9999 -9999 -9999 -9999 -9999 -9999 -9999 -9999 -9999 -9999 -9999 -9999 -9999 -9999 -9999 -9999 -9999 -9999 -9999 -9999 -9999 -9999 -9999 -9999 -9999 -9999 -9999 -9999 -9999 -9999 -9999 -9999 -9999 -9999 -9999 -9999 -9999 -9999 -9999 -9999 -9999 -9999 -9999 -9999 -9999 -9999 -9999 -9999 -9999 -9999 -9999 -9999 -9999 -9999 -9999 -9999 -9999 -9999 -9999 -9999 -9999 -9999 -9999 -9999 -9999 -9999 -9999 -9999 -9999 -9999 -9999 -9999 -9999 -9999 -9999 -9999 -9999 -9999 -9999 -9999 -9999 -9999 -9999 -9999 -9999 -9999 -9999 -9999 -9999 -9999 -9999 -9999 -9999 -9999 -9999 -9999 -9999 -9999 -9999 -9999 -9999 -9999 -9999 -9999 -9999 -9999 -9999 -9999 -9999 -9999 -9999 -9999 -9999 -9999 -9999 -9999 -9999 -9999 -9999 -9999 -9999 -9999 -9999 -9999 -9999 -9999 -9999 -9999 -9999 -9999 -9999 -9999 -9999 -9999 -9999 -9999 -9999 -9999 -9999 -9999 -9999 -9999 -9999 -9999 -9999 -9999 -9999 -9999 -9999 -9999 -9999 -9999 -9999 -9999 -9999 -9999 -9999 -9999 -9999 -9999 -9999 -9999 -9999 -9999 -9999 -9999 -9999 -9999 -9999 -9999 -9999 -9999 -9999 43.034 42.855 42.71 42.582 42.341 41.976 41.617 40.741 40.047 39.017 34.486 33.741 33.513 33.454 33.242 32.912 32.056 31.523 32.775 32.724 32.443 32.205 31.886 31.781 31.846 31.873 31.862 31.754 31.443 31.264 31.331 31.415 31.566 31.954 32.046 31.408 30.911 30.526 30.419 30.146 30.165 30.077 29.971 29.493 29.684 29.763 29.669 29.62 29.555 29.361 28.88 28.655 28.594 28.386 28.253 28.181 28.087 28.063 27.956 27.783 27.668 27.513 27.432 27.665 27.74 27.421 27.172 27.357 27.379 27.507 27.525 27.535 27.353 27.222 27.332 27.681 28.742 28.53 27.335 27.307 27.406 27.24 25.88 27.398 27.373 27.248 27.06 26.876 26.727 26.573 26.531 26.54 26.457 26.401 26.439 26.308 26.047 26.045 26.042 25.969 25.807 25.591 25.507 25.357 25.278 24.962 24.331 23.86015 23.87285 23.927 23.911 23.778 23.469 23.055 23.167 23.46 23.585 23.473 23.731 24.868 26.176 25.221 24.017 22.688 21.835 21.385 20.895 20.966 21.15 20.64638 20.24708 20.01493 19.847 19.814 19.692 19.439 19.356 19.308 19.294 19.191 19.98098 19.75781 18.816 18.696 18.676 18.522 18.399 18.296 18.204 17.9047 18.27926 18.39 18.646 18.758 19.601 18.681 19.081 20.705 23.194 21.145 19.785 19.67 19.444 19.163 19.061 18.392 17.55128 17.3595 16.79092 16.553 16.458 16.657 16.496 16.1786 16.17384 16.1694 16.204 16.36496 16.629 16.491 16.912 15.85 15.696 15.574 15.502 15.639 15.642 15.417 15.98 16.104 16.301 16.417 16.495 16.693 17.012 17.05 17.023 16.738 16.372 16.232 15.852 15.978 16.896 19.113 19.623 19.304 18.165 15.144 13.804 13.426 13.281 13.397 13.417 13.665 13.88 14.177 14.174 14.329 14.331 14.418 14.636 15.327 16.252 17.51 18.73 20.236 20.728 20.304 19.889 19.729 19.341 18.619 18.624 18.676 18.648 18.509 18.887 19.088 19.329 19.431 19.424 19.444 17.741 15.827 11.552 10.464 9.821 9.52 9.687 9.791 11.212 17.007 19.125 17.616 15.505 12.178 11.221 10.945 10.452 10.226 9.608 8.845 8.715999 8.3 8.2 10.6 10.6 8.729765 8.624215 8.731061 8.912815 9.106461 9.202875 9.200314 9.058119 8.870889 8.839901 9.136248 10.0015 10.71007 10.6258 9.833063 9.128879 8.569742
-9999 -9999 -9999 -9999 -9999 -9999 -9999 -9999 -9999 -9999 -9999 -9999 -9999 -9999 -9999 -9999 -9999 -9999 -9999 -9999 -9999 -9999 -9999 -9999 -9999 -9999 -9999 -9999 -9999 -9999 -9999 -9999 -9999 -9999 -9999 -9999 -9999 -9999 -9999 -9999 -9999 -9999 -9999 -9999 -9999 -9999 -9999 -9999 -9999 -9999 -9999 -9999 -9999 -9999 -9999 -9999 -9999 -9999 -9999 -9999 -9999 -9999 -9999 -9999 -9999 -9999 -9999 -9999 -9999 -9999 -9999 -9999 -9999 -9999 -9999 -9999 -9999 -9999 -9999 -9999 -9999 -9999 -9999 -9999 -9999 -9999 -9999 -9999 -9999 -9999 -9999 -9999 -9999 -9999 -9999 -9999 -9999 -9999 -9999 -9999 -9999 -9999 -9999 -9999 -9999 -9999 -9999 -9999 -9999 -9999 -9999 -9999 -9999 -9999 -9999 -9999 -9999 -9999 -9999 -9999 -9999 -9999 -9999 -9999 -9999 -9999 -9999 -9999 -9999 -9999 -9999 -9999 -9999 -9999 -9999 -9999 -9999 -9999 -9999 -9999 -9999 -9999 -9999 -9999 -9999 -9999 -9999 -9999 -9999 -9999 -9999 -9999 -9999 -9999 -9999 -9999 -9999 -9999 -9999 -9999 -9999 -9999 -9999 -9999 -9999 -9999 -9999 -9999 -9999 -9999 -9999 -9999 -9999 -9999 -9999 -9999 -9999 -9999 -9999 -9999 -9999 -9999 -9999 -9999 -9999 -9999 -9999 -9999 -9999 -9999 -9999 -9999 -9999 -9999 -9999 -9999 -9999 -9999 -9999 43.074 42.924 42.762 42.603 42.4 41.968 41.502 39.697 37.619 36.345 34.256 33.697 33.561 33.52 33.319 32.908 30.978 32.784 33.321 33.174 32.536 32.213 31.948 31.859 31.846 31.691 31.643 31.777 31.648 31.968 32.263 32.653 34.374 35.89 35.71 33.393 31.971 31.006 30.582 30.497 30.699 31.329 31.573 31.394 30.869 30.143 29.826 29.909 29.973 29.744 29.246 28.346 28.542 28.366 28.247 28.165 28.112 28.054 27.988 27.891 27.91 28.309 29.306 29.228 28.969 29.101 28.592 27.752 27.524 27.679 27.511 27.556 28.024 27.971 27.692 28.325 28.569 28.257 27.327 27.292 27.212 27.564 27.17 25.918 27.342 27.249 27.086 26.895 26.766 26.618 26.52 26.572 26.475 26.365 26.396 26.145 26.22 26.052 26.069 26.082 25.999 25.791 25.651 25.542 25.288 25.007 24.483 24.019 23.89086 23.79667 23.642 23.503 23.162 22.625 22.158 22.628 22.428 22.813 23.075 23.142 23.602 24.718 23.967 22.294 21.376 21.016 20.818 20.7762 20.68509 20.38338 20.216 20.104 19.993 19.952 19.834 19.667 19.492 19.314 19.274 19.204 19.317 19.50157 19.15913 18.83214 18.763 18.708 19.07853 19.11766 18.94795 18.83709 18.19635 18.033 18.059 17.783 17.343 17.43006 17.661 18.547 18.506 18.946 18.237 18.274 18.234 17.922 17.524 17.13945 17.24652 17.39895 17.092 16.762 16.526 16.502 16.407 16.171 16.111 16.093 16.171 16.306 16.399 16.35 16.59 16.827 16.444 16.265 16.526 16.777 16.812 16.716 16.683 16.754 17.035 17.934 18.58 19.091 19.873 20.345 19.957 18.758 18.469 17.872 17.237 18.706 19.289 19.407 19.534 18.119 15.924 14.173 13.431 13.529 13.515 13.543 13.671 13.73 15.064 16.746 17.174 16.902 16.062 15.157 14.754 15.092 16.244 17.156 18.613 19.348 19.934 19.957 19.699 19.427 19.256 18.832 18.768 18.782 18.552 18.392 18.35 18.331 18.545 18.338 18.184 16.668 14.935 11.494 10.505 9.867 9.375 9.255 9.258 9.519 9.982 15.65 18.036 17.117 14.568 11.284 10.91 10.701 10.58 9.918 9.292 8.878 8.882 8.593 8.332 8.842864 10.6 10.6 9.36469 9.605268 9.868217 10.03958 10.0968 10.10698 9.968197 9.808805 9.752223 9.886867 10.17347 10.47079 10.44936 9.855966 9.556544 9.336613
-9999 -9999 -9999 -9999 -9999 -9999 -9999 -9999 -9999 -9999 -9999 -9999 -9999 -9999 -9999 -9999 -9999 -9999 -9999 -9999 -9999 -9999 -9999 -9999 -9999 -9999 -9999 -9999 -9999 -9999 -9999 -9999 -9999 -9999 -9999 -9999 -9999 -9999 -9999 -9999 -9999 -9999 -9999 -9999 -9999 -9999 -9999 -9999 -9999 -9999 -9999 -9999 -9999 -9999 -9999 -9999 -9999 -9999 -9999 -9999 -9999 -9999 -9999 -9999 -9999 -9999 -9999 -9999 -9999 -9999 -9999 -9999 -9999 -9999 -9999 -9999 -9999 -9999 -9999 -9999 -9999 -9999 -9999 -9999 -9999 -9999 -9999 -9999 -9999 -9999 -9999 -9999 -9999 -9999 -9999 -9999 -9999 -9999 -9999 -9999 -9999 -9999 -9999 -9999 -9999 -9999 -9999 -9999 -9999 -9999 -9999 -9999 -9999 -9999 -9999 -9999 -9999 -9999 -9999 -9999 -9999 -9999 -9999 -9999 -9999 -9999 -9999 -9999 -9999 -9999 -9999 -9999 -9999 -9999 -9999 -9999 -9999 -9999 -9999 -9999 -9999 -9999 -9999 -9999 -9999 -9999 -9999 -9999 -9999 -9999 -9999 -9999 -9999 -9999 -9999 -9999 -9999 -9999 -9999 -9999 -9999 -9999 -9999 -9999 -9999 -9999 -9999 -9999 -9999 -9999 -9999 -9999 -9999 -9999 -9999 -9999 -9999 -9999 -9999 -9999 -9999 -9999 -9999 -9999 -9999 -9999 -9999 -9999 -9999 -9999 -9999 -9999 -9999 -9999 -9999 -9999 -9999 -9999 -9999 43.197 42.971 42.841 42.574 42.297 41.953 41.548 40.786 38.514 34.745 33.5 33.356 33.257 33.005 32.951 32.541 32.746 33.865 34.485 33.827 32.94 32.407 32.004 31.89 31.771 31.729 31.694 32.145 33.12 33.837 34.969 36.464 37.094 37.443 37.6 36.387 34.435 32.196 31.619 31.538 31.905 34.568 35.629 35.659 34.742 33.233 31.191 30.835 30.9 30.992 30.108 29.005 28.805 28.852 28.344 28.183 28.127 28.093 28.065 27.978 28.177 29.914 32.433 32.186 31.576 32.575 31.712 29.183 28.431 27.818 28.043 29.029 29.297 28.996 29.589 30.449 29.306 28.249 28.01 27.62 27.324 27.262 27.451 27.44 26.012 27.245 27.131 26.895 26.674 26.389 26.379 26.435 26.385 26.283 26.254 26.259 26.219 26.148 26.065 26.06 26.276 26.342 26.106 25.799 25.446 25.067 24.667 24.525 24.05851 23.7404 23.50874 23.57491 23.22683 22.77924 21.87185 21.93712 21.651 21.879 21.86619 21.641 21.799 22.354 21.982 21.055 20.423 20.68371 20.81914 20.73102 20.47 20.386 20.372 20.242 20.126 20.085 19.94 19.803 19.632 19.275 19.215 19.289 19.508 19.304 19.16245 19.01134 18.8789 18.93688 19.04562 18.93283 18.876 18.658 18.23484 17.89744 17.741 17.52908 17.28967 17.19866 17.28271 17.40489 17.09934 17.3 17.41659 17.69678 17.61619 17.31172 17.11634 16.925 16.9387 17.03 16.876 16.782 16.424 16.313 16.343 16.22 16.154 16.199 16.304 16.351 16.19 16.265 16.642 16.822 17.155 18.129 19.414 21.283 20.775 18.119 17.378 18.044 19.308 20.424 21.222 21.468 22.149 22.371 21.234 20.089 19.479 19.064 19.564 19.601 19.462 18.748 17.534 16.59 14.704 13.868 13.656 13.707 14.084 14.303 14.666 15.395 17.653 18.388 17.806 17.091 15.87 15.626 15.474 15.231 15.473 16.487 18.456 19.168 19.576 19.625 19.621 19.319 19.132 18.82 18.621 18.516 18.295 18.181 17.679 17.148 16.457 16.242 15.433 13.858 12.398 10.481 10.006 9.538 9.295 9.123 9.097 9.206 9.498 12.019 16.046 15.645 12.828 11.231 10.763 10.46 10.123 9.387 8.729999 8.759 8.779 8.752 9.296028 9.08337 10.6 10.6 10.6 10.17059 10.158 10.227 10.372 10.48 10.309 10.231 10.173 10.165 10.244 10.376 10.526 9.817 9.194 8.993
-9999 -9999 -9999 -9999 -9999 -9999 -9999 -9999 -9999 -9999 -9999 -9999 -9999 -9999 -9999 -9999 -9999 -9999 -9999 -9999 -9999 -9999 -9999 -9999 -9999 -9999 -9999 -9999 -9999 -9999 -9999 -9999 -9999 -9999 -9999 -9999 -9999 -9999 -9999 -9999 -9999 -9999 -9999 -9999 -9999 -9999 -9999 -9999 -9999 -9999 -9999 -9999 -9999 -9999 -9999 -9999 -9999 -9999 -9999 -9999 -9999 -9999 -9999 -9999 -9999 -9999 -9999 -9999 -9999 -9999 -9999 -9999 -9999 -9999 -9999 -9999 -9999 -9999 -9999 -9999 -9999 -9999 -9999 -9999 -9999 -9999 -9999 -9999 -9999 -9999 -9999 -9999 -9999 -9999 -9999 -9999 -9999 -9999 -9999 -9999 -9999 -9999 -9999 -9999 -9999 -9999 -9999 -9999 -9999 -9999 -9999 -9999 -9999 -9999 -9999 -9999 -9999 -9999 -9999 -9999 -9999 -9999 -9999 -9999 -9999 -9999 -9999 -9999 -9999 -9999 -9999 -9999 -9999 -9999 -9999 -9999 -9999 -9999 -9999 -9999 -9999 -9999 -9999 -9999 -9999 -9999 -9999 -9999 -9999 -9999 -9999 -9999 -9999 -9999 -9999 -9999 -9999 -9999 -9999 -9999 -9999 -9999 -9999 -9999 -9999 -9999 -9999 -9999 -9999 -9999 -9999 -9999 -9999 -9999 -9999 -9999 -9999 -9999 -9999 -9999 -9999 -9999 -9999 -9999 -9999 -9999 -9999 -9999 -9999 -9999 -9999 -9999 -9999 -9999 -9999 -9999 -9999 -9999 -9999 43.037 42.875 42.779 42.594 42.28 41.729 41.421 40.174 35.813 34.003 33.54 33.761 33.605 33.479 33.437 33.103 32.08 34.105 35.503 34.975 34.263 32.951 32.14 31.977 31.832 31.85 31.971 32.864 35.356 36.118 37.149 37.9 38.396 38.283 38.163 37.788 35.865 33.635 34.287 34.489 35.283 36.562 37.064 36.967 36.387 36.042 33.427 34.773 34.781 35.689 33.699 31.795 30.436 30.28 29.903 29.004 28.507 28.22 28.168 28.442 29.237 31.469 33.398 34.325 33.637 34.027 33.917 32.013 31.502 31.4 30.988 30.567 31.618 31.102 30.179 31.538 31.882 31.302 31.53 29.239 28.478 27.339 27.299 27.83 27.855 25.883 27.096 26.904 26.575 26.217 26.219 26.318 26.26 26.214 26.254 26.303 26.398 26.317 26.03 26.091 26.031 26.165 26.202 25.773 25.586 25.121 24.708 24.527 24.183 23.83197 23.77634 23.59928 23.26207 22.78448 22.21848 21.99364 21.88015 21.88329 21.80233 21.51612 21.0965 21.26467 20.98985 20.639 20.468 20.65188 20.809 20.737 20.49 20.498 20.571 20.45 20.29 20.181 20.021 19.83 19.708 19.316 19.198 19.104 19.19 19.169 19.244 19.232 18.77315 18.85441 18.924 18.734 18.62 18.417 18.341 18.12342 17.88385 17.71981 17.447 17.24903 17.248 17.3641 17.31321 17.44545 17.58895 17.53555 17.50211 17.23952 17.437 17.075 16.904 16.851 16.761 16.722 16.357 16.249 16.359 16.338 16.277 16.311 16.472 16.567 16.403 16.563 17.01 19.995 22.298 22.081 22.333 22.188 21.043 20.189 19.709 20.522 21.976 22.675 22.658 22.403 22.189 22.396 21.549 21.025 20.781 20.571 19.41 18.526 16.976 15.779 15.082 14.663 14.39 14.257 14.037 15.385 16.796 16.958 16.013 17.395 18.793 19.122 18.26 17.703 17.256 17.324 16.676 15.874 15.788 16.602 17.863 18.741 19.028 19.283 19.362 19.216 19.124 18.708 18.485 18.412 18.331 17.968 17.122 16.394 15.491 14.919 14.043 12.723 11.038 9.98 9.343 9.29 9.185 9.07 8.948 8.88 8.817 9.597999 10.803 13.066 13.031 11.199 10.5 10.089 9.446999 8.977 8.554 8.611 9.096 9.343159 9.444887 9.095428 9.426699 10.6 10.6 9.687 10.605 10.276 10.424 10.588 10.485 10.173 10.136 10.21 10.359 10.273 9.731 8.152 7.764 7.732
-9999 -9999 -9999 -9999 -9999 -9999 -9999 -9999 -9999 -9999 -9999 -9999 -9999 -9999 -9999 -9999 -9999 -9999 -9999 -9999 -9999 -9999 -9999 -9999 -9999 -9999 -9999 -9999 -9999 -9999 -9999 -9999 -9999 -9999 -9999 -9999 -9999 -9999 -9999 -9999 -9999 -9999 -9999 -9999 -9999 -9999 -9999 -9999 -9999 -9999 -9999 -9999 -9999 -9999 -9999 -9999 -9999 -9999 -9999 -9999 -9999 -9999 -9999 -9999 -9999 -9999 -9999 -9999 -9999 -9999 -9999 -9999 -9999 -9999 -9999 -9999 -9999 -9999 -9999 -9999 -9999 -9999 -9999 -9999 -9999 -9999 -9999 -9999 -9999 -9999 -9999 -9999 -9999 -9999 -9999 -9999 -9999 -9999 -9999 -9999 -9999 -9999 -9999 -9999 -9999 -9999 -9999 -9999 -9999 -9999 -9999 -9999 -9999 -9999 -9999 -9999 -9999 -9999 -9999 -9999 -9999 -9999 -9999 -9999 -9999 -9999 -9999 -9999 -9999 -9999 -9999 -9999 -9999 -9999 -9999 -9999 -9999 -9999 -9999 -9999 -9999 -9999 -9999 -9999 -9999 -9999 -9999 -9999 -9999 -9999 -9999 -9999 -9999 -9999 -9999 -9999 -9999 -9999 -9999 -9999 -9999 -9999 -9999 -9999 -9999 -9999 -9999 -9999 -9999 -9999 -9999 -9999 -9999 -9999 -9999 -9999 -9999 -9999 -9999 -9999 -9999 -9999 -9999 -9999 -9999 -9999 -9999 -9999 -9999 -9999 -9999 -9999 -9999 -9999 -9999 -9999 -9999 -9999 -9999 42.503 42.45 42.765 42.633 42.165 41.588 41.296 38.823 34.708 33.656 33.918 34.069 33.832 33.574 33.5 33.292 31.454 34.618 36.206 36.353 36.174 34.634 33.199 32.645 32.307 32.127 32.404 33.16 36.393 38.215 38.555 38.437 38.522 38.414 38.132 37.989 35.967 35.17 36.782 37.105 36.931 37.359 37.603 37.533 37.3 36.996 36.744 36.635 36.776 36.681 36.149 35.66 34.545 34.344 33.048 30.577 29.813 29.546 29.192 29.681 31.444 32.331 33.579 34.766 34.758 34.632 34.637 34.291 34.198 34.116 33.81 32.859 33.224 33.013 31.307 31.998 32.688 32.832 32.215 30.524 28.038 28.075 28.539 28.905 29.695 28.103 25.968 26.794 26.583 26.266 26.251 26.264 26.187 26.22 26.218 26.221 26.256 26.256 26.224 25.852 25.678 25.88 25.964 25.988 25.564 25.122 24.66 24.345 24.221 24.213 24.02934 23.59414 23.31912 22.93568 22.53755 22.25209 22.29561 22.24547 22.22728 21.87457 20.99149 21.03174 21.11884 21.0062 21.0731 21.06574 20.938 20.843 20.743 20.755 20.664 20.569 20.451 20.265 20.093 19.904 19.775 19.558 19.333 19.114 19.099 19.083 19.095 19.107 18.852 18.654 18.528 18.426 18.392 18.348 18.26 18.19 18.021 17.854 17.519 17.327 17.382 17.443 17.50247 17.53583 17.627 17.648 17.654 17.31 17.198 17.005 16.834 16.748 16.655 16.662 16.496 16.428 16.429 16.453 16.328 16.331 16.595 16.943 16.92 17.308 19.246 23.802 23.815 23.687 23.54 22.965 22.247 21.825 21.937 22.545 23.44 23.513 23.088 22.65 22.262 22.079 22.203 22.085 21.865 21.072 18.842 15.795 15.156 14.957 14.775 14.619 14.599 14.866 15.768 18.117 18.597 18.616 19.177 19.447 19.575 19.617 18.954 18.491 18.622 18.964 18.303 16.775 16.285 16.643 17.457 18.002 18.825 19.355 19.373 19.384 19.211 18.908 18.603 18.329 18.057 17.452 16.426 15.718 14.837 14.027 13.273 12.144 10.456 9.339 9.347 9.241999 9.114 8.998 8.906 8.751 8.757 8.802 9.409 11.051 12.546 11.602 10.361 9.55 9.095 8.793 8.632 9.061507 9.001227 9.238181 9.322275 8.664921 8.479 10.6 10.438 10.073 10.462 10.317 10.323 10.563 10.705 10.588 10.292 10.215 10.468 10.225 8.405 7.325 7.196 7.181
-9999 -9999 -9999 -9999 -9999 -9999 -9999 -9999 -9999 -9999 -9999 -9999 -9999 -9999 -9999 -9999 -9999 -9999 -9999 -9999 -9999 -9999 -9999 -9999 -9999 -9999 -9999 -9999 -9999 -9999 -9999 -9999 -9999 -9999 -9999 -9999 -9999 -9999 -9999 -9999 -9999 -9999 -9999 -9999 -9999 -9999 -9999 -9999 -9999 -9999 -9999 -9999 -9999 -9999 -9999 -9999 -9999 -9999 -9999 -9999 -9999 -9999 -9999 -9999 -9999 -9999 -9999 -9999 -9999 -9999 -9999 -9999 -9999 -9999 -9999 -9999 -9999 -9999 -9999 -9999 -9999 -9999 -9999 -9999 -9999 -9999 -9999 -9999 -9999 -9999 -9999 -9999 -9999 -9999 -9999 -9999 -9999 -9999 -9999 -9999 -9999 -9999 -9999 -9999 -9999 -9999 -9999 -9999 -9999 -9999 -9999 -9999 -9999 -9999 -9999 -9999 -9999 -9999 -9999 -9999 -9999 -9999 -9999 -9999 -9999 -9999 -9999 -9999 -9999 -9999 -9999 -9999 -9999 -9999 -9999 -9999 -9999 -9999 -9999 -9999 -9999 -9999 -9999 -9999 -9999 -9999 -9999 -9999 -9999 -9999 -9999 -9999 -9999 -9999 -9999 -9999 -9999 -9999 -9999 -9999 -9999 -9999 -9999 -9999 -9999 -9999 -9999 -9999 -9999 -9999 -9999 -9999 -9999 -9999 -9999 -9999 -9999 -9999 -9999 -9999 -9999 -9999 -9999 -9999 -9999 -9999 -9999 -9999 -9999 -9999 -9999 -9999 -9999 -9999 -9999 -9999 -9999 -9999 -9999 41.017 41.979 42.168 42.099 41.335 38.005 36.44 35.525 34.185 34.189 34.312 34.224 32.632 32.094 32.565 32.456 32.233 35.705 37.589 37.9 37.785 36.208 34.171 33.25 32.855 32.828 33.258 34.115 37.074 38.503 38.832 38.701 38.528 38.445 38.202 37.561 36.603 37.077 37.628 37.792 37.579 37.595 37.693 37.716 37.724 37.443 37.265 37.036 36.974 36.863 36.745 36.473 36.427 36.477 35.712 32.786 31.441 31.324 32.015 34.063 34.487 33.566 34.404 35.091 35 34.743 34.702 34.55 34.471 34.44 33.882 33.567 33.672 33.672 33.373 32.732 33.243 33.386 31.987 30.657 -9999 29.402 30.462 30.975 31.64 32.57 28.421 26.287 26.673 26.615 26.493 26.304 26.169 26.196 26.187 26.202 26.239 26.163 25.998 25.755 25.58 25.364 25.651 25.845 25.883 25.238 24.737 24.491 24.421 24.396 24.062 23.718 23.445 23.22684 23.048 22.544 22.66 22.607 22.541 22.157 21.678 21.657 21.67 21.636 21.561 21.514 21.366 21.052 20.896 20.829 20.758 20.69 20.516 20.324 20.145 19.953 19.85 19.687 19.517 19.176 19.076 19.047 18.996 18.936 18.834 18.669 18.459 18.416 18.432 18.464 18.327 18.229 18.091 17.899 17.653 17.446 17.438 17.416 17.381 17.229 17.206 17.321 17.406 17.371 17.175 16.994 16.846 16.755 16.683 16.764 16.601 16.544 16.491 16.468 16.46 16.627 17.049 17.471 17.527 18.22 22.057 24.673 24.656 24.576 24.352 23.944 23.541 23.282 23.392 23.518 23.605 23.351 23.081 22.963 22.64 22.247 22.505 22.572 21.749 20.101 16.982 15.088 14.76 14.807 14.798 14.872 16.588 17.551 18.63 20.285 19.898 20.023 20.309 20.597 19.88 19.501 19.105 18.819 19.386 19.714 18.867 17.509 16.629 16.968 17.677 18.6 19.055 19.47 19.467 19.249 19.341 19.078 18.692 18.248 17.505 16.787 15.668 14.609 13.73 13.233 12.857 11.572 10.163 9.399999 9.347999 9.148 9.023 8.923 8.871 8.708 8.8 8.571 8.609 9.189 11.729 10.863 9.696 9.133 8.818 8.730957 8.673957 8.713168 8.740055 8.724603 8.843 8.313 8.3 8.198 8.754 10.375 9.733 10.39 10.328 10.464 10.502 10.378 10.453 10.319 10.339 10.216 8.129 7.409 7.492 7.43
