ncols         319
nrows         46
xllcorner     220584.859
yllcorner     815939.977
cellsize      100
nodata_value -999
-999 -999 5 5.6136 5.6098 5.238 5.0179 5.2889 5.0615 5.0361 4.9625 4.8484 4.9091 5.3135 5 4.6882 4.3085 5 5 5.245 5.1148 5.193 5 4.6944 4.0879 4.2452 4 4.006 4.0916 4.8105 4.1668 4.2083 3.8385 4.0093 4 4.0133 3.9669 3.84 3.8268 3.8 3.5356 3.5423 3.8016 4.066 4.2089 4.4876 4.6163 4.4682 4.7292 4.7271 4.6295 4.277 4.2904 3.2753 3.2447 3.1949 3.2603 3.219 2.7377 2.3137 2.4479 2.4749 2.3951 2.4478 2.433 2.0178 2.2784 2.4767 2.4815 2.5703 3.1439 1.2586 1.8002 1.8295 1.7324 1.4493 1.2 1.2 1.2923 1.1797 1.0936 1 0.9394 0.8763 0.7607 0.4347 0.7471 0.6147 0.6135 0.5452 0.7921 0.6661 0.5874 0.6046 0.9266 0.9131 0.9736 0.6056 2.051 1.2101 1.3559 1.3253 1.2036 1.2829 1.0426 1.2977 1.3803 1.2241 1.1296 1.3745 1.4803 1.5947 1.6269 1.874 2.3089 3.7841 3.8491 4.962475 5.10759 2.2968 2.2772 2.3406 2.3528 2.2859 2.2816 2.3957 2.642 3.2091 2.5821 2.0736 1.5763 4.316934 4 3.1009 3.460873 3.142943 3.26293 1.025 0.0505 -0.0829 -0.1375 -0.3581 0.0288 -0.2227 -0.7114 -1.4266 0.9362 -1.2149 -1.1406 -1.2399 -1.3473 0.184 0.2103 0.2408 0.1674 0.1381 1.2498 2.3992 2.2765 2.2416 3.709204 3.690228 1 2.673 1.4123 1.5317 1.532 1.5299 1.5027 1.5048 1.5341 1.504 1.6897 1.7969 2.0026 2.8132 2.5055 2.6336 3.0923 2.9383 2.7837 2.0693 3.0377 3 3.0135 3.4241 2.0131 1.5614 1.8513 1.6863 2.8899 1.7663 1.7077 1.678 2 2.0701 2 1.5303 1.3588 1.3546 1.1583 1.4195 1.3027 1.5095 1.4353 1.1761 1.2011 1.0484 1.3941 1.5934 1.8483 1.2215 1.1794 1.5645 1.734 1.7612 2 2 2.4682 2 2 2.6245 3.3819 3.0724 3.0722 2.4614 3.8528 1.1149 0.8491 1 0.8391 1 1.8167 2.2331 2.4945 2.5578 2.4678 2.0201 1.2247 1.5004 1.5671 0.8632 0.7097 1.5555 1.8549 1.8 1.7632 1.755 1.6 1.5454 1.097 2 2.0982 2.7052 4.4 0.4579 0.4293 0.5038 0.7067 1.4072 1.6586 1.5732 1.4212 1.676 0.9329 0.9 0.9 0.8803 0.9726 0.8617 0.849 0.7684 0.7867 0.8 0.8735 0.7523 0.6883 0.6072 0.3106 0.6079 0.7903 2.8808 0.043 1.1389 0.3115 0.3661 0.63 0.8367 0.7264 0.6954 0.6464 0.4379 0.1844 0.1183 0.1715 0.0551 0.3975 0.847 0.4238 0.9 0.8001 0.7359 0.7507 0.7909 0.7596 0.7141 0.6832 0.6929 0.7679 0.7801 0.8 0.4418 0.2 0.4536 0.5 0.7407 0.7891 0.9946 -999
-999 -999 5 5.4159 5.8072 5.283 5 5.5303 5.3125 5.1744 5.0213 4.9558 4.9909 5.0071 4.4265 4.1534 4.1419 5 4.8569 5.4358 5.0405 5 4.9182 4.5876 4.2204 4.1564 4.0104 4.0208 4.0145 3.953 4.4891 5 4.6114 4.3702 4.1077 4.0036 3.8158 3.8849 3.7084 3.8475 3.5689 3.7087 3.7852 3.9812 3.9849 3.7606 3.9014 4.0322 4.69 4.3929 4.3524 4.1972 4 3.5674 3.2901 3.5627 3.7263 3.6455 3.137 2.6559 2.3285 2.0773 2.4922 2.5769 2.167 2.511 2.7078 2.7099 2.7718 2.8713 2.9068 1.2588 2.3972 1.9886 1.8153 1.7027 1.499 1.1818 1.1327 1.0608 0.4729 0.864 0.6938 0.6065 0.4879 0.3904 0.5759 0.5109 0.409 0.2941 0.3305 0.4378 0.357 0.2411 0.6337 0.5497 0.6242 2.6985 1.2056 1.1248 1.2152 1.2041 1.2157 1.156 1.1201 1.2769 1.1556 1.2806 1.3943 1.4056 1.3444 1.4668 1.605 1.9475 2.3122 2.3176 4.0326 3.6554 4.827583 5.232754 2.2893 2.5396 2.5442 2.4721 2.6176 2.855 3.059 3.1619 2.9005 2.5337 5.005202 4.62872 1.2371 3.3755 3.3576 0.1793 3.113303 0.032 1.6082 -0.5197 -0.3483 -0.7607 -0.201 -0.5807 -0.5738 0.9005 0.8959 -1.4147 -1.2452 -1.3077 -1.2577 -0.37 0.4369 0.4195 0.3295 0.1631 0.2547 0.3034 0.2193 2.3146 0.7435 3.27408 4 2.5461 2 1.8459 1.5686 1.5317 1.5432 1.5583 1.5039 1.5802 2.0014 2.7236 2.1603 2.8285 2.9518 2.6331 2.4124 2.8423 2.9373 3 2 3.4644 2.1295 3.1012 2.881 2.076 1.9668 1.2885 2.9149 2.0874 2 2 2 2 2 1.4419 1.6933 1.8407 1.2934 2 1.6834 1.4247 1.3456 1.0823 1.0268 1 1.6894 2 2.1422 2.6504 2.3576 1.7346 1.8158 1.8702 2 2.0119 2.4685 2.4617 2.7409 2.85 3.2224 3.2491 2.8617 2.1504 3.2822 1.2687 1 0.9946 1 1 1.1297 1.7158 2.0102 2.7009 3.0681 2.3093 2.5384 2.6765 1.6672 1.7096 1.7487 1.5516 1.9042 1.8625 1.7002 1.7629 1.591 1.5149 1.4895 1.0133 2.0119 1.9078 4.5159 0.4173 0.4481 0.4164 0.5634 0.8261 1.3448 1.489 1.7132 1.5532 1.0236 0.5079 0.2258 0.0591 0.4835 1.0135 0.8074 0.7571 0.8056 0.8335 1 0.9503 0.7 0.5875 0.4851 0.578 0.7284 3.0059 0.6622 1.237 0.7701 0.4386 0.158 0.0004 0.0181 0.2272 0.4398 0.6 0.5071 0.3079 0.5458 0 1 1.0714 1.0059 0.9668 1.2112 1.2695 1.0276 0.775 0.7927 0.543 0.5707 0.8 0.8302 0.8832 0.8925 0.7436 0.6698 0.692 0.6505 0.8838 -999 1.068 -999
-999 -999 5.108 6 6 5.407 5.0499 5.5939 5.3351 5.1902 5.0426 5 4.9669 4.9605 4.6465 4.4052 4.2653 4.5211 4.5082 5 4.9363 4.8907 4.9048 4.8356 4.3515 3.8524 3.8347 3.9941 4 3.9689 4.102 4.4213 5.1393 5.0832 4.3479 3.9379 3.9469 4.0279 3.9522 3.9391 4.134 4.3741 3.9857 4 3.8793 3.7106 4.4226 5 4.8472 4.0798 3.8494 4 3.9004 3.4585 3.1762 3.2142 3.4072 3.4776 3.4474 3.0938 2.9082 1.8559 2.0629 2.1024 2.2327 2.7472 2.8516 2.9344 2.9492 2.977 3.218 1.2217 1.1424 1.9121 1.7678 1.8127 1.5883 1.1368 1.0585 0.8103 0.7239 0.7025 0.6626 0.2495 0.2524 0.2662 0.2006 0.2075 0.1343 0.1 0.133 0.2501 0.1796 0.0952 0.5478 0.4818 0.6058 2.8211 1.3017 1.1131 1.2199 1.2233 1.0924 1.2 1.4072 1.3247 1.3128 1.4 1.5 1.5423 1.625 1.5776 1.5882 1.7228 1.9876 2.3467 3.9653 3.7732 2.2397 5.301805 2.5244 5.582577 5.559287 5.558612 5.767231 6.249424 6.200775 6.25412 5.933438 5.401056 5.074686 1.8524 1.9336 1.6073 3.3059 0.317 3.228238 3.234585 1.1789 -0.0597 -0.2692 -0.4139 -0.5203 -0.7149 1.955 0.9048 -1.5649 -1.1578 -1.1018 -1.1789 -1.0377 0.2328 0.1538 0.296 0.2141 0.1002 0.2794 0.2585 0.244 2.2882 2.3769 1 3.631789 4 2 2 1.8196 1.5411 1.5288 1.6467 1.57 1.5283 2.2112 2.8087 2 2.7787 3.061 3.0449 2.4076 2.7274 3 2.0122 2 3.1731 2 2.1219 2.2538 2.0222 1.6149 1.5648 2.9633 2.1999 2 2.0356 2 2 2.388 2.2269 2 2.8301 1.5775 1.1388 0.9674 0.9509 0.9233 0.9636 1 1 1.8347 2.1156 2.03 1.9354 1.5706 1.3272 1.9294 1.942 2.2968 2.553 2.8421 2.7986 2.8354 2.7339 2.167 2.7111 3.0555 2.7803 3 1.5417 1.6885 1.2286 1.1512 1 1 1.5379 2.2863 1.9124 2.0104 1.4218 2.4965 1.8107 2.8258 2.1291 1.7205 2 2 2 1.7532 1.8 1.7681 1.6611 1.5804 2.0608 2 2 2.4931 4.4388 0.6913 0.4838 0.5481 0.5056 0.4823 1.3524 1.4868 1.6908 1.5434 1.3829 1.2447 1.142 1.2964 1.1075 1.0241 0 0.0704 0.2914 0.7991 0.6488 0.9388 0.2775 0.4476 0.5467 0.6832 3.1506 1.1792 0.9366 0.9566 0.7483 0.3836 0.4135 0.185 0.2081 0.5 0.8766 0.9342 0.8074 0.9203 1.5045 1.436 1.5413 1.5761 1.6834 1.4827 1.6735 1.548 0.757 0.7361 0.8415 0.7992 0.8 0.8371 0.9 0.9 0.9543 1.0385 1.0183 1.0024 1.0196 1.2791 -999 -999
-999 -999 5.1878 5.6694 5.4538 5.8756 5.2363 5.8494 5.5957 5.242 5.1492 4.8933 4.9433 4.4637 4.3755 4.0894 4.2349 4.6969 4.947 4.806 4.8115 4.7642 5.7184 4.0406 4 3.8559 3.7483 3.3446 3.1251 3.13 3.4462 3.6605 4.4809 4.159 4.0669 3.5468 3.6028 4.2038 4.2906 4.1876 4.9016 4.9486 4.5663 4.4285 4.0989 4.3877 4 4 5 4.7471 3.3784 3.7927 3.534 3 2.5131 2.6647 7.0788 3.0035 3.069 3.3378 1.9582 2.2252 2.1272 2.3646 2.5242 2.7398 2.8174 2.8578 2.9563 3.066 3.344 1.2294 1.3396 1.6312 1.5642 1.7585 1.6524 1.4904 1.2972 1.1302 0.7326 0.6069 0.5992 0.6629 0.4533 0.1652 0.1731 0.1475 0.0227 0.076 0.0662 0.1305 0.0717 0.1331 0.3109 0.5078 2.8446 1.3943 1.0593 1.1817 1.291 1.2726 1.1814 1.3591 1.488 1.4436 1.4966 1.4598 1.5351 1.5667 1.5672 1.3211 1.4184 1.5961 1.859 2.047 2.3803 3.8363 4.3815 5.679192 5.72235 5.380302 2.516 2.5563 2.4773 2.4931 3.1462 2.9791 3.0295 4.3749 3.9363 3.5037 1.5827 1.1334 1.0252 0.6014 0.3755 3.283961 0.0649 4.0599 0.0162 -0.202 -0.2062 -0.4353 2.3511 -0.7706 -0.8855 -0.8102 -0.8053 -0.9247 -0.4787 -0.027 0.227 0.2784 0.0956 0.0369 0.2277 0.271 0.3491 0.7068 2.3777 2.3312 1 4 2.5178 1.8414 1.6828 1.7 1.6444 1.6953 1.7 1.7 1.8974 2 2.2967 2.9364 2.5541 2.3 2.3 2.4134 2.1119 2.5695 2.39 2.1305 2 2 2 1.3317 2.2904 2.2071 2.9056 2.1006 2 1.9834 2.6645 2.4059 1.0003 0.9883 0.9773 1.0455 0.8751 0.8875 0.6804 0.7681 0.7843 0.8828 0.9805 1.3525 1.9019 2 1.9282 1.182 1 1.3752 2.1777 1.9214 1.9888 2.6223 2.7251 2.7451 2.0395 7.4615 1.8911 1.8785 2.154 2.78 2 1.6923 1.6856 1.3551 1 1 0.9562 0.6965 1.1576 1.0978 1.5187 2.7291 1.8454 1.8 1.7438 1.6826 2.3496 2 2.0528 2.2 2.2086 1.9185 1.4126 1.4715 1.4451 1.2293 1.821 1.8137 1.14 4.3897 4.369 0.4 0.4804 0.4657 0.4153 0.6933 0.903 1.0664 1.6094 1.5832 1.4878 1.3867 1.4871 1.6053 1.676 1.4363 1.4402 1.3353 1.6655 1.0778 1.4277 1.2722 1.4991 1.4936 1.325 3.2732 1.1421 2.4321 2.118 0.6931 0.4903 0.4869 0.354 0.2193 0.6728 0.7498 1.3276 1.3507 1.687 1.5956 1.6857 1.7509 1.795 1.7006 1.5981 1.5684 1.7879 0.9309 0.9432 0.9768 1.0084 1 1.0001 1.0123 0.9583 0.9795 1.1235 1.1755 1.0675 1.1 1.1819 -999 -999
-999 -999 5 5.3628 3.6004 4.106 5.4574 5.8 5.5841 5.1585 5.0273 4.3786 4.2066 3.8476 3.9234 4.0109 4.6614 4.9796 5.3147 4.7502 4.7 4.6259 4.0623 3.8014 3.4596 3.521 3.7 3.3455 3.0526 2.7993 2.6315 2.9208 3.1675 2.6712 2.7096 2.5697 3.689 4.1266 4.1766 4.6162 5 5.1497 5.437 5.0986 4.3673 4.6787 5.04 5.0393 3.9374 3.8424 3 3.353 3.0809 2.8579 1.8224 2.0847 18.3864 2.0078 1.9777 1.9389 1.6716 2.181 2.279 2.4616 2.7165 2.7926 2.9227 3.3738 2.8675 3.1 3.2995 3.2319 2.5543 2.0947 2.3187 1.7236 1.1142 1.0816 1.1 0.9751 0.7387 0.6757 0.6083 0.3177 0.1685 0.1109 0.0581 0.0172 0 0.0082 0.0203 0.0126 0.037 0.1654 0.4828 2.8484 0.479 1.139 1 1.2252 1.6759 1.2663 1.4158 1.436 1.4412 1.5535 1.4 1.346 1.438 1.5 1.6 1.5125 1.5998 1.5776 1.8302 2.0599 2.3966 3.8236 3.798 2.8063 2.2839 2.0463 2.0338 2.0821 2.3206 2.2828 2.5345 3 3.3215 3.1277 2.5621 2.1633 1.976 1.4962 1.221 0.8668 0.584 3.304569 0.0863 2.4505 0.009 -0.2353 -0.4869 -0.2665 2.479 -0.1905 -0.5197 -0.6438 -0.4629 -0.8277 -0.3159 0.4814 0.3114 0.0066 0.1162 0.1255 0.1357 0.2 0.2778 0.8169 1.2074 1.2032 2.144 4.181878 4.205868 1.8639 2 1.9268 1.9183 1.7736 1.9488 2.1957 2.1647 2.5498 2.3 2.4122 2.3 2.3 2.3 2.5721 2.2676 2.4251 2.0042 2 2.2899 1.4172 1.3343 2.1938 2.3616 2.7874 3.1469 3.0969 1.8304 1.6435 1.3129 1.028 1.0643 1.003 0.946 1.1618 0.6492 0.8061 0.6138 0.6727 0.7132 0.8722 1.2466 1.9789 2.0405 2.0465 2 2 1.8102 2.1241 2 1.9107 2.1337 2.3164 1.8207 2.0325 2.6971 16.9764 6.0524 1.8619 1.9183 2.8692 2.0236 1.9481 1.6721 1.5329 1 1 0.5001 0.4939 0.4678 0.5321 0.939 2.2309 1.6045 1.7645 1.7833 1.6449 1.7885 2.5157 2.0996 2.3445 2.4911 1.2519 1.8768 1.8902 1.9 1.0607 1.2837 1.1738 1.529 1.5631 4.3303 0.46 0.4974 0.548 0.5 0.4205 0.5 0.6354 1.3738 1.4791 1.7987 1.9732 1.7423 1.7953 1.6535 1.6427 1.6496 1.6 2 1.5962 1.0317 1.3217 0.9994 1.0743 0.5972 3.1682 1 1 0.7573 0.8821 0.779 0.5832 0.4761 0.4701 0.6724 1.1488 1.509 1.4519 1.7811 1.7488 1.7087 1.7389 1.781 1.7598 1.8 1.8257 1.635 1.2423 1.2296 1.1765 1.1552 1.033 1.0368 1.0989 1.1057 1.1 1.1744 1.1774 1.1 1.1 1.2839 -999 -999
-999 -999 4.9476 5.7144 3.9252 5.6869 5.6156 5.5159 5.3288 5.1592 5.2558 4.6259 4.0017 4.3272 4.3114 4.3283 4.886 4.8229 5.0505 4.855 4.5403 4.2771 4.107 3.8457 3.6102 3.7453 3.6029 3.3567 3.0642 2.8475 2.5946 2.6972 2.7014 2.8999 2.4415 2.823 3.8477 3.8337 4.1829 4.1508 4.8616 5.437 5.7465 5.7244 5.6583 5.2107 5 5.2042 5.1995 4.57 3.8725 3 2.5138 2 1.924 1.4749 1.7213 0.9763 1.489 1.5604 3.1517 2.176 2.357 2.3124 2.5695 2.813 3.0358 3.2685 2.9344 3.0415 3.0992 1.2332 2.6532 2.4536 2.7559 2.352 2.2093 1.0577 1.1418 0.9988 0.7347 0.7 0.5761 0.3052 0.3157 0.4704 0.5112 0.2283 0 0.2552 0.2817 0.4459 0.4604 0.2459 0.2789 2.8261 1.2935 1.3606 1.2841 1.0518 1.7638 1.4609 1.2178 1.3359 1.3241 1.4788 1.2122 1.3236 1.493 1.5 1.6 1.5734 1.5382 1.7177 1.8595 2.0924 2.5184 2.1676 3.9342 2.7351 3.0174 3 2.5826 2.517 2.5798 2.9144 3.03 3 3.231 3.1372 2.5686 2.1365 2.1106 1.7707 1.4806 1 3.824351 3.436874 0.2125 1.5842 0.1876 -0.2699 -0.4363 -0.3827 2.5896 -0.0405 -0.3562 -0.6471 -0.4977 -0.6528 -0.294 1.1137 1.108 0.7917 0.583 0.3498 0.0816 0.1486 0.1742 0.6568 4.30458 4.259308 4.356105 4.666087 2.4844 2 2.0647 1.8399 1.8491 2.4705 2.6767 1.877 2.0909 2.5796 2.1841 2.124 2.4442 2.9257 2.3483 2.3 2.3264 2.5372 2 2 2 2.1268 1 1.5326 2.0339 2.7308 2.5089 1.9253 2.9502 3.0551 2 1.5629 1.4053 1.183 1.1624 1 1.0948 0.8631 0.7583 1 1 1.0643 1.2715 1.8532 2.1654 2.0722 2 2 2.0233 2.0374 2.0825 2 1.9381 2.2256 2.2254 2.1582 2.6551 2.3983 2.4706 7.8969 2.4879 2.8384 1.8818 1.5036 1.4969 1.2498 0.9072 0.9963 1.9007 0.55 0.5 0.676 2.4636 3 2.1836 2.515 1.706 1.1853 1.8028 1.8131 2.2147 2.6435 2.376 2.0334 1.71 1.7079 1.6741 1.6001 1.374 1.5307 1.6007 1.7791 4.2766 0.5385 0.5704 0.8687 0.6059 0.6522 0.6829 0.8705 1.0369 1.5169 1.94 2 1.8 1.8 1.7769 1.7782 1.8442 1.6232 1.7118 1.0218 1.2592 0.1766 0.2538 1 0.1731 3.2664 1.2005 1.3002 1 1 1.3489 1.1276 0.9291 0.7015 0.5834 1.1726 1.5719 1.5083 1.7661 1.7815 1.7892 1.7815 1.873 1.93 1.8947 1.9974 1.6512 1.4 1.3028 1.2452 1.2867 1.3305 1.2436 1.2126 1.1925 1.1513 1.132 1.2387 1.4016 1.2883 1.3666 -999 -999
-999 -999 4.8735 5.1793 4.4393 4.1718 4.1582 5 5.0937 5.1761 5 4.5126 4.058 4.2761 4.8051 5.0353 5 4.8556 4.3111 4.287 4.1455 4.313 4.1692 3.9008 3.8202 3.6674 3.7834 3.6048 3.242 2.8521 2.4649 2.3248 2.7246 3.2688 2.8344 3.672 3.6395 3.6261 3.9308 3.9313 4.0972 4.4867 5 5.2596 5.1713 5 5 5.4517 5.0957 5 4.934 4.5848 3.6178 2.0827 1.5595 1.6284 1.4559 1.9509 2.3339 1.8963 5.8168 2.0717 2.4979 2.3337 2.4327 2.8743 2.8358 2.9441 2.8057 3.0031 3.1084 1.8682 2.7937 3.0721 3.1958 3.1564 1.8271 1.5899 1.2628 1.0521 0.7494 0.7 0.6305 0.5853 0.8467 0.8364 1.0316 0.1074 0 0.2838 0.4998 0.7266 0.8958 0.8236 2.6284 1.1078 0.9445 1.0552 1.2579 1.4296 1.5465 1.5176 1.3898 1.376 1.3935 1.6552 1.462 1.3692 1.4639 1.5844 1.6 1.6 1.6542 1.791 1.8989 2.14 2.6729 2.3692 3.2926 4.3445 3.2775 3 2.753 2.4519 2.7709 3.0627 3.1468 3.0895 2.9652 2.8743 2.3028 2.1732 2.0538 1.9 1.8173 1.2202 3.70408 0.0504 -0.0031 2.0371 -0.2915 -0.4043 -0.4117 -0.4442 -0.2489 2.6344 -0.2059 -0.8884 -0.538 -0.6126 -1.1469 -0.0065 1.293 0.7927 0.7855 0.4143 0 0.0176 0.1904 0.1483 3.566957 1.2233 1.2366 2 2.1051 2.0157 2.1703 1.6849 1.6516 1.6446 1.7355 2.0877 2.0171 1.764 1.5 1.7106 2.145 2.4854 2.5888 2.3911 2.7253 2.179 2.4835 2.6 2.1404 2.3808 2.446 2.5175 2.0386 2.147 2.4416 2.3438 2.6916 3.2653 2 1.5453 1.4907 1.2042 1.2793 1.1968 1.1688 1.0706 1 1.2714 1.5653 1.4368 1.4927 1.7866 2 2.0955 2 2 1.9669 1.8791 1.8825 1.9256 2.1491 2.0924 2.1977 2.0445 2.1918 1.7024 3.6937 15.6841 2.7841 2 2 1.7046 1.4681 1.3018 0.9533 0.994 1.4083 0.5986 1.6096 2 3 3.6867 2.8596 3 2.2884 2.613 1.9584 1.9273 2.1929 2.293 2.314 2.0022 2.012 1.7301 1.0507 1 1.3832 1.5555 1.4394 1.2086 4.0038 0.6668 0.4512 0.4178 1.0431 1.0924 1 0.694 1.1154 1.6533 1.8656 2.1454 2.2867 1.9089 1.8 1.7684 1.6539 1.5467 1.1973 0.5516 0.3844 0.1752 0.3089 1 0.1466 2.8693 1.6269 1.9115 3.9487 1.057 2.0481 1.8 1.6487 0.6514 0.9511 1.2736 1.5781 1.5419 1.7334 1.7973 1.7021 1.8 1.9311 2.3226 2.4896 2.2284 2 1.7674 1.7976 1.7906 1.7183 1.6738 1.5292 1.3448 1.2532 1.2 1.3476 1.3 1.2356 1.4217 1.4805 -999 -999
-999 -999 3.7257 4.3288 6 5.7577 5 4.9191 5.6658 5.611 5.2157 4.5309 3.808 3.8669 4.7942 4.7562 4.2017 4.5348 4.0851 4.3894 4.2342 4.3956 4.2918 4 4.1481 3.9806 4 3.5316 3.8852 2.7396 2.2693 2.3666 2.4044 2.5729 3.0543 3.6098 3.7631 3.6537 3.625 3.7256 3.8495 3.8814 4.4923 4.5251 4.709 4.6873 4.5657 4.8544 5.6417 6.6375 4.7641 4.6283 3.9928 3.7695 2.7818 2.4682 2.3792 2.614 3.4969 2 2.0187 2.4931 3.378 3 2.155 2.7172 2.6945 2.9203 2.9059 3.1725 1.2283 2.4959 2.7939 3.0808 3.1083 3.1958 2.9156 1.6168 1.3875 1.2384 0.8372 0.7805 0.6676 0.5314 0.8748 0.8157 1 1 1 1 0.8543 0.8943 1 0.8879 2.1502 1.2558 1.0797 1.2166 1.413 1.5098 1.5528 1.372 1.3397 1.3709 1.3043 1.4 1.4645 1.4815 1.5758 1.5778 1.5934 1.6143 1.6008 1.7162 1.9177 2.179 2.551 2.8406 2.5533 4.7734 4.0559 3.6541 3.1252 2.8837 3 2.9775 3.2019 3.0855 3.0082 2.8506 2.9942 2.5197 2.2243 1.9526 1.8591 1.3498 4.031287 0.2247 0 1.6135 -0.2909 -0.3531 -0.611 -0.712 -0.2432 2.5484 0.5561 0 -0.8757 -0.9632 -1.2799 -0.2658 1.0773 0.6167 0.1731 0.0416 0.2912 0.9049 0.8193 1 3.799037 1.0463 1.3708 1.5683 1.6529 2.2104 1.7684 1.6628 1.8065 1.9294 1.8172 1.8779 1.9188 2.2251 1.7912 1.9196 2.3027 2.3216 2.5558 2.3 2.3 2.3731 2.242 2.3965 2.5639 2.0521 2.4039 2.5542 2.1018 2.3436 2.4887 2.4412 2.0619 3.0744 1.4034 1.2189 1.1 1.2988 1.3307 1.3104 1.4447 1.3562 1.1878 1.6631 1.8767 1.6422 1.6785 1.8449 2 2.0929 2.0226 2.0756 1.9311 1.8882 1.9004 1.9872 2.0862 2.051 2.1775 2.0713 1.4251 1.6682 2.3958 2.939 1.8676 2.4177 2.7267 1.376 1.2749 1 1 0.9077 0.7913 2.6384 2.5343 3 3.4204 3.0853 3.0774 2.6523 2.9519 3 2.8215 2.3053 2.2226 1.3366 2.204 2.0274 2.0312 1.9491 1.9 1.4638 1.0619 1.3738 1.7738 1.2813 4.0477 0.5 0.4677 0.6744 1.3503 1.3162 1 0.777 1.4033 1.5571 2.0158 2.3005 1.8217 1.8 1.8 1.75 1.7126 1.6 1.143 1.3204 0.7443 0.343 0.2339 1.5208 2.8019 2 2.6666 2.0431 12.8931 1.0843 1.4675 1.8365 1.6561 0.7199 0.9858 1.4146 1.5012 1.5895 1.6358 1.8115 1.7456 1.8207 1.9969 2.6874 2.5606 2.2512 2 2.1659 2.2 2.1403 2.0108 1.8992 1.783 1.5018 1.2827 1.3397 1.4089 1.3552 1.2345 1.4414 1.5179 -999 -999
-999 -999 4.4718 5.1854 5.6752 5 5.0072 5.9776 6.8738 5.7442 5.2185 5 5 4.8638 5 4.4197 4.0899 4.7088 4.0374 4.2673 4.2281 4.3008 4.3073 4.0474 4 4 4 4 4.3707 3.1409 2.3266 2.3807 2.5305 2.8498 3.1743 3.6506 3.9108 3.8179 3.225 4.2464 3.5953 3.7476 4.3712 4.1624 4.4742 4.7423 4.5771 4.1049 4.4314 5.9204 4.3176 3.8939 3.6698 3.3618 2.7261 2.5945 2.4314 2.1082 1.8214 1.8923 2 1.0551 1.2741 1.9132 1.8824 2.2419 3 3 3.2279 3.1979 3.2432 2.7759 3.3222 3.5546 3.2887 3.2184 3.0106 1.8448 1.1217 1.3816 1.2573 1.1746 1.0813 0.729 1.0135 1.0466 1.2527 1.1365 1.0101 1.2927 0.9943 1.0098 1.0199 2.3302 1.0164 1.1012 1.1624 1.4765 1.6829 1.7 1.3202 1.6821 1.4669 1.398 1.4 1.4834 1.5507 1.5033 1.5531 1.6071 1.7007 1.7157 1.7628 1.8574 1.8914 2.0188 2.0436 2.6453 2.8319 2.9843 4.1193 3.9985 3.281 3.1946 3.0746 3.007 2.8919 3.0087 3 2.8958 2.8442 2.6489 2.2545 2.0941 1.7392 1.6036 4.174967 0.9855 0.4329 1.2455 -0.1144 -0.0045 -0.1673 -0.2097 0.1586 2.627 0 0 -0.4974 -1.0912 -0.5221 0.3031 0.6687 0.3984 0.0508 0.2713 0.2016 1.4252 1.065 1 3.96724 1.1068 1.5398 1.4338 1.9696 2.3058 1.7713 1.7446 1.9289 2 2.0929 2.3766 2.1981 1.6953 2.5342 2.1894 2.182 2.396 0.3667 2.3392 2.3339 2 2.4025 2.4982 2.5674 2.3752 2.5875 2.4267 2.4926 2.3401 2.0373 2.0285 2 2.5245 2.1697 1.8068 1.7386 1.5745 1.5721 1.4171 1.5864 1.6997 1.7151 2.1044 2.1522 1.9522 2 2.0144 2.2561 2.1351 2.0192 2.3401 2 2.0075 1.9 1.9275 2.1102 2.0135 2.1222 2 1.2373 1.3885 3.3224 3.1982 1.902 1.6253 2.0542 1.8171 1.8104 1 1 1.8852 1.3378 1.8473 2.1664 3.1951 3.5823 3.358 3.4124 3.0515 3 3 3.1336 2.5165 2.5993 2.1831 2.2234 2.0722 2.0476 1.9729 1.9703 1.6407 1 1.3021 1.57 1.9246 4.0724 4.0528 0.672 0.8937 1.3 1.3 0.9361 0.731 1.354 1.7456 1.9127 2.1849 2.0143 2.0146 2.0319 1.9944 1.7761 2 1.5459 1.2587 0.5766 0.5475 0.2189 2.6639 1.8216 4 2.432 1.6462 7.3628 2.0008 2.5237 1.8598 1.0751 1.0516 1.0491 1.1512 1.6 1.6471 1.7691 1.836 2 2.6188 2.1854 2.5789 13.9684 10.1661 2.165 2.1358 2.2 2.1626 2.2927 2.0025 1.8153 1.592 1.4586 1.5385 1.447 1.3813 1.3875 1.5413 -999 -999 -999
-999 -999 5.9038 5.5123 5.4696 5.0685 5 5.5506 6 5.5771 5.1475 4.7645 4.7754 4.7941 4.9248 4.317 3.9837 4 4.4595 4.5824 4.2435 4.2038 4.459 4.2967 4.0901 4.31 3.9592 4 3.9403 3.0459 2.8249 2.9283 3.0207 3.6926 3.8331 4.0109 2.5743 3.169 2.0843 3.3809 3.093 2 3.645 4.2746 4.4096 4.974 4.2445 3.9065 3.8871 4.1745 3.8255 3.6025 3.2411 3.0791 2.3116 2.0855 1.9464 1.8273 1.7052 1.7197 1.6811 1.5523 1.6792 2 2 1.8376 2.6419 2.6255 3 2.9652 3 3 3.3669 3.5281 3.3594 3.1677 2.7999 2.3118 1.4678 1.1286 1.2787 1.2994 1.1415 1.1783 1.05 1.2114 1.337 1.3277 1.1602 1.2396 1.1736 1.2901 1.3914 2.1233 1.1954 1.1421 1.1493 1.5541 1.7498 1.748 1.7952 1.7474 1.466 1.0425 1.4112 1.6 1.5339 1.5196 1.6 1.7346 1.6 1.7008 1.6783 1.7947 1.7768 1.7904 1.9854 2.163 2.5455 2.838 4.4092 3.3601 3.2179 3.3247 3.2157 3.096 3.2528 3.0395 3.0207 3.037 2.7893 2.7739 2.268 2.0618 2 1.5364 3.992603 0.9234 1.3068 0.0566 0.0763 0.009 0.2164 0.4264 0.6951 2.7503 0 0.3435 0.3779 0.244 0.3458 0.4883 0.2666 0.0501 0.2334 0.4019 0.1737 1.5932 1.5016 1.0961 4.123772 1.2795 1.3433 1.4873 1.9058 2.5001 1.8527 1.8 1.943 2.5838 2.1193 2.3481 2.3663 2.4699 2.4837 2.7708 2.7116 2.4349 -2 2.2884 2.3701 2.2176 2.7921 2.5032 2.4477 2.4711 2.6452 2.2737 2.0563 2.3579 1.8298 2.0251 3.3911 3.4134 2.4012 2.2116 1.8768 1.6928 1.8963 1.8607 1.7886 1.9344 1.9708 2.151 2.1943 1.9642 1.8438 1.9775 1.9979 2.4069 2.4879 2.2244 2.0007 1.9435 1.8598 1.8946 2.33 2.1739 2.0606 1.7938 1.7387 1.6985 3.5098 2 1.7263 1.4905 1.531 1.26 1.4108 1.2067 1 2.5303 2.4728 2 3 3.4492 3.0712 3.4306 3.2313 3 3 3 3.1587 3.0172 2.0801 2.0474 2.3088 2.0944 2.2397 2.2543 2.1446 1.8483 1.7705 2 1.7693 2 1.9556 3.9809 0.7056 0.8954 1.3546 1.0781 1.0589 1.0643 1 1.5243 1.4191 1.9864 2.3 2.3 2.3196 2.3029 2.1839 2.2249 1.3938 1 0.8978 0.8979 2.112 0.3783 2 2.2394 2 2.4503 2.7747 2.8406 2.8698 2.1111 0.8956 0.6479 0.837 1.1886 1.5294 1.6291 1.9177 2 2.413 2.0409 2.1684 2.7212 17.6086 14.6025 3.2416 3.6869 2.194 2.0276 4.4674 2.0334 1.8663 1.7181 1.6286 1.5162 1.4 1.5658 1.4884 1.7309 -999 -999 -999
-999 -999 5.5316 5.5542 5.3562 5.1685 5 4.875 4.81 4.5561 4.5913 4.6586 4.7467 4.8736 4.7842 4.1859 4 4 4.1272 4.509 4.1656 4.425 4.4585 4.1537 3.9457 3.7815 3.4269 3.7137 4.0511 3.4738 3.0286 3.0796 3.8519 4.0495 3 3.6547 3.8945 4.0976 2.9549 3.1011 3.6055 3.6701 3.1903 3.0703 3.212 3.3534 3.2444 3.6488 3.5169 3.827 3.5937 3.3339 3.2973 3.0074 2.1973 1.4241 1.4242 2.0709 2.3611 2.3082 1.7976 2.2532 2.3132 2.319 2.1521 2 2.2038 2.9214 3.0537 2.0875 1.8996 3.0055 3.4357 3.4017 3.1167 2.6777 2.7822 2.6926 1.0409 1.3558 1.05 1.2181 1.0598 1.0776 1.223 1.2279 1.018 1.269 1.014 1.1265 1.159 1.4159 2.2422 1.4289 1.3926 1.4123 1.521 1.6121 1.7124 1.862 1.7989 1.846 1.6894 1.5 1.4108 1.6 1.6296 1.6061 1.539 1.6268 1.8046 1.6189 1.6728 1.7145 1.8572 1.9218 1.9948 2.0546 2.5359 2.9871 4.2884 3.9803 3.2746 3.459 3.2071 3.2672 3.734 3.9002 3.0924 3.0737 2.9038 2.5599 2.3053 2.1001 2.1407 1.5662 3.918005 0.6042 1.2146 0.5504 0.6884 0.7709 0.386 0.4102 0.4594 3.0698 -0.8478 0.1852 0.562 0.4733 0.1176 0.5264 0.087 0.4745 0.6 0.6505 1 4.6343 1.4082 2 4.547101 1.2947 1.356 1.594 2 2.5868 1.9016 1.8035 2.0065 2.5788 2.0974 2.2542 2.2888 2.3536 2.6292 2.9542 2.7526 2.2205 2.2066 2.4869 2.2107 2.4491 2.7564 2.6865 2.8423 2.8518 2.5917 2 2.0215 2.2991 2.3398 3.3745 3.2848 2.2944 2.405 2.3009 2.2037 1.9545 1.9268 1.84 2 2.0361 2.1887 2.1832 2.2089 2.0721 1.8544 1.8395 1.8482 1.8358 1.8265 1.8634 1.7444 1.7381 1.8758 1.8376 2.0585 2.0524 2.0661 1.8891 1.4348 3.0906 3.3124 1.7311 1.3827 1.4951 1.5674 1.4256 1 0.9622 1 1.9897 2.2043 2.7354 3.2964 3.1274 3.2385 3.3643 2.753 2.9936 3 3.1929 3.0194 2.3918 2.4553 2.3579 2.4946 2.0272 2.2007 2.2164 2.0662 1.8098 2.0289 2.0627 2.1324 1.314 1.1565 3.8961 3.8833 0.678 0.7403 0.8491 1.277 1.4639 1.5654 1.5085 1.8423 2.0087 2.2644 2.5024 2.2942 2.3115 2.382 2.0729 1.6778 1.1321 1.0506 0.9773 2.4984 2.0175 2.3168 2.1419 1.9492 2.4344 2.5775 2.5344 2.6858 2.2043 1.1278 0.8741 1.0624 1.5781 1.6256 1.5969 1.9149 2.6767 4.6532 2.6758 3.1811 2.6411 2.4153 2.2855 3.3117 2.7415 2.2395 2.3611 2.0919 2.1944 2.0544 1.925 1.8681 1.7128 1.6007 1.6941 1.8622 1.9 -999 -999 -999
-999 -999 5.1563 5.2771 5.066 4.8461 4.9138 4.5745 4.8718 4.4064 4.1814 4.5866 4.8838 4.5987 4.3466 5.2057 4.1693 3.6009 3.994 4.1845 4.2953 3.6617 3.8398 4 3.3464 3.9505 3.8425 3.988 4 3.8866 3.9222 4 2.2144 3.0841 3.9651 3.8975 4.1124 4.5931 2.2381 3.1546 3.6216 3.6281 3.5617 3.7362 3.746 3.2054 3.0247 3.5039 3.5139 3 3 2.8414 2.7067 1.3987 1.761 1.562 1.4335 1.3408 1.7089 1.9835 2.2989 2.372 1.7587 2.3942 2.2593 2.1682 2.2763 2.422 3.7027 2.7534 2.6269 3.0927 3.3082 3.3408 2.8322 2.503 2.7496 2.7572 2.3919 1.3324 1.0659 1.0613 1.1495 1.2522 1.165 1.3681 1.1066 1.1348 0.8263 1.111 1.2697 2.3608 1.2381 1.3398 1.3242 1.4453 1.5254 1.5536 1.7205 1.7791 1.6411 1.4751 1.5199 1.5507 1.75 1.7549 1.7275 1.6859 1.6038 1.5909 1.8034 1.7524 1.5642 1.556 1.7216 1.8821 1.9422 3.1856 3.1275 2.9244 2.6655 4.4912 3.4169 3.4812 3.133 3.1689 3.6267 3.3152 3.0279 3.0462 2.8806 2.7243 2.5904 2.4306 2.1625 2.0398 4.466862 0.6488 1.3087 0.7599 1 1 0.7201 0.6769 0.5849 0.4225 3.1657 0.1714 0.6 0.5101 0.3381 0 0.3153 0.61 0.6574 0.588 1.3725 5.266 1.3022 1.5583 4.551052 1.2906 1.5251 1.9378 2.1183 2.2866 2.5152 1.8855 2.2214 2.5148 1.9918 2.0884 2.2358 2.385 2.3801 2.2071 2.5568 2.3313 2.3304 2.2038 2.4657 2.4086 2.5864 2.5942 2.6776 3 2.8179 2.8075 2.9566 2.5191 3.489 3.443 3.013 3.0097 2.9883 3.0197 2.46 2 2.2265 2.3876 2.1222 2 2.2741 2.2269 2.3723 2.0652 1.9241 1.7481 1.6293 1.8391 1.7365 1.7897 1.7905 1.7027 1.7975 1.8912 1.7308 2 2 1.6851 1.6413 3.3342 1.8543 1.6518 1.7389 1.7122 1.7512 1.6728 1.5328 1.2233 0.929 2.1656 2.1933 2.9533 3 3 3.4195 2.8609 2.2464 2.2955 2.8254 3.0874 3 2.4147 2.2957 2.3819 2.4591 2.303 2.4621 1.8323 2.2028 1.7815 1.1616 1.2755 1.4375 1.8952 1 1 4.0329 0.5589 0.7421 1.1383 1.3253 1.6835 1.4877 2 2.3527 2.5839 2.5973 2.9367 2.4767 2.687 2.5856 2.362 2.0225 1.6242 1.154 2.6928 2.8048 2.3665 2.5037 2 1.8756 1.6808 1.4601 1.7231 3.116 1.9346 1.6823 1.553 1.5422 1.2983 1.5356 1.6233 1.7509 2 2.7074 2.8446 2.46 10.979 4.9479 4.0112 2.4203 2.5525 2.6933 2.3085 2.0424 2.0317 2.08 2 2.0401 2.1756 1.848 1.7607 1.9586 1.9853 -999 -999 -999
-999 -999 5.0071 4.9767 4.9078 4.8327 5.2173 4.8517 4.8803 5.1699 4.2162 4.6207 4.9197 5.1351 5.6095 4.4955 4.4653 3.8396 4.0055 4.4345 4.4459 4.0451 2.4768 1.5224 2.1136 3.2835 3.0649 2.0632 2.5716 2.4045 2.1354 2 1.3592 2.9634 4 3.8541 4.3821 4.7322 2 3.8139 3.8117 3.5146 3.568 3.7225 3.7135 3.1681 3.1044 3.7681 3.2491 3.1204 2.9808 2.6657 2.1482 1.6844 1.3725 1.475 1.3186 1.3797 1.865 2.2412 2.2412 2.3275 2.5456 2.7949 2.5881 2.46 2.3804 2.4788 4.0048 2.2773 2.0637 2.1838 2.0443 1.7199 1.4235 1.1318 1.4524 2.2023 2.6942 2.0933 1.3526 1.2013 1.4431 1.6474 1.3751 0.8759 0.9369 1.0583 0.7276 0.8705 0.9223 2.4823 1.4327 1.3151 1.3055 1.3888 1.5416 1.5508 1.5332 1.7333 1.6469 1.5993 1.6542 1.5269 1.7702 1.7208 1.6655 1.5822 1.7347 1.6504 1.7978 1.8396 1.5093 1.5919 1.6808 1.6695 1.8821 3.2954 2.6605 2.7659 2.7254 4.4391 3.3759 3.2163 3.1467 3.3006 3.5546 3.9111 3.2905 3.1594 3.042 2.8922 2.6929 2.4832 2.5104 2.1559 5 0.7965 1.4283 0.603 0.4881 0.3603 0.312 0.3732 0.2324 0.2072 2.7998 0.4291 0.3 0.4618 0.3299 0.2231 0 0.0542 0.4835 0.6195 0.9971 5.0828 1.3142 1.651 4.973624 1.9847 1.7737 2 2.0891 2.3737 2.6443 1.7975 2.9333 2.9292 2.2218 2.1323 2.1143 2.3187 2.1463 1.9489 2.4042 2.3832 2.2575 2.2547 2.2125 2.5341 2.2794 2.6179 2.5447 2.9232 2.3853 2.537 3.0225 3.6343 3.6139 2.5564 2.3915 2.2331 2.3654 2.1581 2.172 2.4625 3.2289 2.4072 2.3061 2.0436 2.288 2.307 2.3977 2.0858 1.8921 1.7204 1.7071 1.9 1.8425 1.895 1.7508 1.8598 1.8143 1.8948 1.8023 1.49 1.7959 1.9488 3.596 3.5754 2.119 1.992 1.9932 1.5898 1.8105 2.0042 1.7693 1.4496 1.6883 1.81 2 2.2194 2.6446 3 2.9488 2.315 2.2 2.2 2.4193 2.3557 2.6334 2.2 2.2 2.291 2.1254 2.2562 2.1687 2.3303 2.1552 1.9039 1.3145 1.7647 1.6 2 1.0174 1.4048 4.0855 0.7667 0.7926 1.2858 1.4085 0.8112 1.51 1.3145 2.0728 2.3858 2.7228 3.0302 2.9207 3 3.3051 2.9992 2.5496 1.8147 1.1355 2.7169 2.1616 2.7867 2.709 2.0039 1.5318 1.0336 1.4493 1.3269 2.3443 2.286 2.1384 1.795 1.7567 1.8572 1.908 1.9083 1.8215 1.7423 2.2824 2.577 6.4414 27.6636 11.2319 2.9302 2.8915 3.9387 2.557 2.6034 2.8432 2.9216 2.6107 2.3665 2.4001 2.1431 1.8593 1.9291 3.1974 2.0389 -999 -999 -999
-999 -999 4.9701 4.5801 4.7255 4.783 5.0235 4.9812 4.7622 6.1306 4.2788 4.5367 5.7669 4.2552 4.6938 4.39 4.5336 4.2118 4.7218 4.1032 2.9754 2 3.4463 3.5029 3.5218 3.0889 2.3798 1.717 2.3006 2.7939 2.7763 2 3.2806 3 3.8494 4 4.3787 4.1314 2.2744 3.8584 3.7233 3.7878 3.6699 3.7731 3.6333 3.0903 3.0607 3.544 3.0897 3.1079 3.0536 2.858 2.3488 1.7246 1.2761 1.2525 1.3 1.3899 1.8101 2.3468 2.1371 2.3166 2.5146 2.7654 2.4135 2.1823 2.0338 1.892 3.7601 2.6556 2.4 2.4 2.4 2.4 2.4 2.0526 1.4275 1.3703 1.5715 1.3033 2.1784 1.1798 1.2747 1.5392 1.2375 0.995 0.9444 0.9181 1.3932 1.5434 3.4104 2 1.5896 1.4629 1.3744 1.6315 1.8033 1.9873 1.9587 1.5927 1.6588 1.6678 1.6018 1.6513 1.6647 1.6298 1.4291 1.4869 1.6152 1.5546 1.8152 1.5892 1.6125 1.8411 1.871 2.037 3.5613 2.8059 2 2.2709 2.6296 2.68 4.5082 3.1954 3.2 3.2084 3.6214 3.8118 3.2307 3.22 3.0718 3 2.873 2.9 2.3229 2.0807 4.771941 1.5999 1.553 0.6987 0.6446 0.5135 0.2009 0.1237 0.2733 0.2221 2.6 0.3099 0.331 0.6463 0.6402 0.3387 0.577 0 0.4273 0.7689 0.9931 1.348 1.5715 1.7285 4.532459 1.8581 2.0188 2.0051 2.3013 2.1708 2.5894 2 3.0822 2.9684 3.2484 2 -3 4.0703 2.6345 2.7537 2.0576 2.1217 2.3105 2.0045 0 2.2173 2.0622 2.7057 2.7547 2.6559 2.521 2.7568 3.7012 3.6727 3 2.871 2.3435 2.1 2.2634 2.0531 2.0984 2.3664 2.4756 5.1358 4.987 2.401 2.352 2.4012 2.4037 2.1597 1.7966 1.7192 1.8095 1.8065 1.8395 1.7898 1.6698 1.6956 1.8468 1.8282 1.738 2.1901 2.1742 2.0534 3.6765 2 2.0218 2.3227 2 1.5676 1.5485 1.7266 1.5994 1.8081 2.2636 2.0481 1.3977 1.2661 1.856 2.5226 2.999 2.2482 2.2204 2.4093 2.262 2.1849 2.2662 2.2076 2.3064 2.2761 1.942 1.9075 1.7315 2.0042 2.1551 1.8175 1.4946 1.6542 1.5636 1.7118 1.3925 1.3065 1.2933 3.8452 1.2991 1.3478 1.3773 1.5648 1.649 1.373 1.9834 2.5046 2.9201 2.6502 3.0798 3.1373 3.2918 3.0217 2.1423 1.6215 2.6279 2.9177 3.0504 2.9439 2.8912 2.2184 1.6684 1.0665 1.8741 2 1.9862 2.1713 1.7552 1.9982 1.9089 2 1.901 1.7968 1.9774 2.1261 2.0765 2.9709 3.3438 3.2309 2.8806 2.6798 2.9585 3.5044 2.3545 2.8047 2.5557 2.8454 2.5194 2.6 2.6098 2.2903 2.3699 2.3703 2.1211 2.3914 -999 -999 -999
-999 -999 5.0357 4.6032 4.5861 4.576 5.027 5 4.9307 4.8776 4.2366 4.7507 4.7468 4.6478 4.4679 4.8335 5 2.9288 1.7464 2.8055 4.2392 4 3.4569 3.2469 3.362 2.679 2.2137 1.6081 2.0172 1.9799 2 2 2.734 2.7282 3.4933 3.4 3.7405 3.6959 3.0207 2 3.0396 3.5 3.5727 3.5264 3.4846 4 3.0316 3.1911 3 3.3793 3.2913 3.1385 2.6949 2.1878 1.6076 1.2007 1.2318 1.8943 2.0024 2.0442 2.2318 2.7484 2.7533 2.7613 2.1708 2.1507 1.988 2 4.8132 3.8933 3.1523 2.4 2.6756 2.5645 2.3732 2.6504 1.8073 1.5152 2.0545 3.1965 2 1 1 1 1.2229 1.1145 1.1336 1.7482 1.9843 1.277 2.1769 1.9584 1.6349 1.5899 1.5183 1.5656 1.7625 2.0725 2.032 2.0889 2 1.9355 1.8523 1.8433 1.6201 1.727 1.3845 1.4073 1.4601 1.4375 1.6051 1.5135 1.8767 2 2.3039 2.3802 2.4931 3.4526 2 2.4007 2.7217 2.6705 4.8626 3.7464 3.3155 3.3337 3.6612 3.9045 3.0063 3.1681 3.087 3.059 3 2.9 2.7476 2.1434 5.10236 1.581 2.0784 0.3482 0.7381 0.4946 0.3037 0.1802 0.1777 0.1955 2.6539 0.3507 0.4039 0.3285 0.4375 0.621 0.5221 0 0.444 0.738 0.9907 1.2796 1.3748 1.6441 4.756454 1.4886 1.5328 1.8701 2.1605 2.2735 2.613 2.7289 3.1655 3.1701 2.9243 2.1367 2.7074 2.5295 3 2.6447 2.2909 2.3085 2.3035 2.0997 2.1297 2.4532 2.0359 2.6879 2.29 2.0538 2.4863 3.6518 3.6619 3 2.9353 2.9447 2.3573 2.2626 2.3507 2.76 2.0183 2.5057 2.6499 2.5701 2.1215 4.5315 5.3416 2.3284 2.4841 2.6412 1.9512 1.6942 1.7 1.7424 1.759 1.6881 1.5552 1.7629 1.8173 1.8958 1.6134 1.9147 2.305 3.6125 2 2 2.1888 2.1837 2 2.0613 1.688 1.5419 1.4 1.9177 1.6417 1.7452 1.3426 1.2983 1.2 1.3806 1.843 3 2.2219 2.3843 2.3909 2.1275 2.261 2.1331 2.3366 2.1653 1.8493 1.9755 1.862 2.2 2.0436 1.8594 1.693 1.7992 1.4027 1.5476 1 1 2.1579 3.771 1.1555 1.5545 1.5992 1.4194 1.4132 1.5301 1.8932 2.4713 2.5394 2.8518 3.2302 3 2.8617 2.9823 4.645 2 2.5181 3.0046 2.7372 2.6531 2.5111 3.0852 2 1.9135 1.7689 1.9672 2.0386 2 1.9543 2 2 2.3454 1.9945 1.7719 2 2 2.6713 3.0041 2.9727 2.9985 2.2671 2.2717 4.2089 7.3905 4.6148 3.0705 2.0075 2.1609 2.3591 2.7263 2.6911 2.0913 2.4113 2.5683 2.4351 2.0816 -999 -999 -999
-999 -999 5.039 4.8742 4.9577 4.9134 5.1434 5.1239 5.1035 5.345 4.9068 4.9715 5 5.1727 4.4519 4.547 4 4.4754 4.6 4.5313 4.3314 3.8913 3.6121 2.9623 3.4733 2.0251 1.7959 1.8132 1.7115 1.2772 1.4685 1.7362 1.6768 2.7558 3.4156 3.4122 3.3142 3.1085 3.2119 3.5825 2.6868 3.2185 3.6774 3.5655 3.6907 4 3.266 3.1129 3.0948 3.1988 3.401 2.8721 3 2.7512 2.4075 1.8528 1.322 2 1.7806 3 2.6502 2.4725 2.3795 2.7008 1.9993 2.0271 1.7741 1.8511 3.4337 2.4 2.4 2.9905 2.2997 3 1.933 1.6841 1.6448 1.1757 3 3.3849 2.1019 1.0874 1.4281 1.304 1.0077 2 1 1.1773 1.5535 1.7735 1.6645 2 1.8501 1.7295 1.6605 1.7099 1.8128 1.9807 2.1309 2.5262 2.3494 2.1162 2.0868 1.8139 1.8001 1.8 1.6822 1.7029 1.8275 1.7627 1.6936 1.6381 1.624 1.8613 2 2.3966 3.2468 2.1843 2.2156 2.6793 2.719 2.7749 4.4629 4.5073 3.7626 3.2595 3.727 3.9487 3.1203 3.1884 3.1186 3.163 3 3 2.9546 2.661 5.049967 2.1947 0.2958 1.436 1 0.7684 0.3918 0.3272 0.2869 0.3872 0.7254 2.8915 0.6575 0.0708 0.3963 0.1283 0.3548 0 0.3153 0.6619 0.5798 5.4405 1.7471 1.9307 4.469752 1.7054 1.7972 2 1.971 2.1157 2.3699 3 3.0026 3.0094 3.1553 2.3408 2.1116 2.3701 2.1814 2.1886 2.4624 2.3865 2.3326 2.3293 2.6222 2.8183 2.1358 2.8799 2.4722 1.7804 2.773 3.7907 3.1358 3.0914 2.7023 2.9433 2.9425 2.8815 2.7683 2.2891 2.4709 2.499 2.7374 2.0412 2.6469 2.6477 5.1694 4.4347 3.7518 2.4039 2.2977 1.7102 1.4733 1.4713 1.6792 1.9328 2.021 1.9651 1.9528 1.985 1.7048 1.7699 3.7253 3.6907 1.9537 1.8404 1.8805 2.1076 2.2422 2.0773 2 1.8873 1.5685 1.6229 2.2017 1.5698 1.3431 1.2241 1.2166 1.2 1.3781 2 3.0054 2.8289 2.003 2.268 2.2278 2.2797 2.3654 2.3716 2.2158 2.2192 2.179 2.2546 2.0019 1.6069 1.7479 1.8136 1.4963 1.4198 1.5303 1.744 1.7283 1.042 4.2867 1.4972 1.5209 1.2153 1.1549 1.3679 1.4992 1.8438 2.2606 2.7141 2.9809 3 2.8131 3 4.2308 3.028 0.056 3.3164 2.1125 2.2547 2.2976 3.145 2.3682 1.7978 1.834 1.9746 2 2.4525 2.5357 1.884 2 2.0335 2.6149 2.0561 2.3555 2.0148 2.6975 2.8918 2.3991 2.5089 2.577 5.7342 7.7266 4.902 3.7776 3.0043 3 3.241 2.9443 5.4892 3.0102 3 2.28 2.5739 2.036 3.0421 -999 -999 -999
-999 -999 -999 -999 -999 -999 3.6406 2.4437 3.4813 3.2603 3.9686 4.6276 4.7732 4.9215 5.0286 4.7707 4.4174 4.4831 4.6125 4.3521 4.3312 4.2655 3.9849 2.9578 3 1.7873 1.7582 1.6269 1.3559 1.2749 1.2367 1.0892 0.9146 2.3077 2.9331 3.2456 3.1503 3.1537 3.2807 3.1516 2.7283 2.0232 3.4493 4.1045 4 4 3.1353 3 3.1786 3.4265 3.3021 3.3586 3.0675 2.3866 2.6037 2 3 1.0282 1 1.7335 1.8352 1.8144 2 2.5272 2.8283 2.216 2.3887 3.849 2.2495 2.4 2.4 2.4 2.4 2.4229 2.6784 2.4 2.6133 2.5078 2.4642 2.4 2.0482 1.19 1.4151 1.4587 1.797 2.4073 2 1.7191 1 1 1.1483 1.3964 1.7597 1.8 1.7741 1.8833 1.9964 2.2504 2.1179 2.276 2.4565 2.2452 2.2 1.9688 1.9394 1.9281 1.9177 1.9171 1.9614 1.9183 1.8659 1.5267 1.2515 1.3538 1.8691 2.8871 3.034 2.4549 2.5802 2.3922 2.3173 2.6001 2.8581 4.6244 3.4456 3.1743 3.8444 4.9033 3.2959 3.2093 3.1998 3.1695 3.1082 3.025 2.9883 2.6078 5.227618 2.2617 0.0488 1.1012 1.2485 1.2414 1 0.2907 0.3545 0.3595 0.1251 3.1614 0.5721 0.6326 0.1735 0.3872 0.7473 0.2867 0.3832 0.9922 1 2.001 2 2.0097 4.910881 1.5114 1.821 1.9799 2.2816 2.6697 2.3109 3.0583 3.0669 3 2.9888 2.5906 2.2 2.2654 2.1185 2.3953 2.5641 2.7 2.5937 2.7986 2.6183 2.8993 2.7543 3.2252 3.4443 3 2.9565 3.9592 3.2497 3.1439 3.0096 2.8128 2.7774 2.7935 2.3454 2.1102 2.85 2.6522 2.5631 3.0967 2.8854 2.6806 2.291 2.4712 3.2723 2.8127 2.4373 2.3837 1.9486 1.8528 1.9883 2 2.1098 2.2444 2 2 1.9277 1.9769 3.73 1.9622 2.2827 1.8869 1.8826 1.9117 2.3562 2.1266 2.0823 2.1336 1.8364 1.3423 2.7482 1.747 1.4402 1.3 1.2152 1.297 3.0576 2.5017 2.125 2 2.3728 2.3845 2.4051 2.2565 2.5227 2.3185 2.2898 2.1008 2.1514 2.2 2.0096 1.6491 2.8164 2 1.9884 1.1957 2 1.5597 1.5726 1.265 4.3232 0.7589 1.0398 0.9 1.1147 1.3427 1.4436 1.7422 2.039 2.364 2.8355 3.4519 2.819 3 2.934 2.9415 3.3389 3.5705 2.5732 2.4878 2.4267 2.9311 3.34 3 3.4131 3.6547 2 2.3349 2.7617 2.1709 1.8724 2.4359 2.2182 2.4297 3.0298 2.8946 2.5172 3.1974 2.3907 2.3436 2.4891 2.8465 3 3 3 3 3.1354 3.3028 3.2354 3.7345 3.2593 3.2489 3 2.5535 2.8782 2.6424 -999 -999 -999
-999 -999 -999 -999 -999 -999 4.8429 5 4.8515 5.0708 5.3754 5.4557 5.1585 5.2784 5.63 5.2 5.267 5.1864 4.9939 4.995 4.5545 4.5237 4.857 4.8306 2.9508 2.2675 2 1.9218 1.6656 1.111 1 1.0894 1.3266 2.2269 2.9353 3.2755 3.216 3.056 3.0163 2.5118 2.3984 2.8062 3.6405 3.9913 3.7197 3.4157 3.4503 3.2014 3.1366 3.2334 3.4162 3.4259 3 2.9594 1 1.119 1.7095 1 1.893 2.2254 2.132 2.3616 2.6955 2.8879 2.9014 2.8996 2.5507 2.7704 4.22 3 2.8637 2.987 2.5114 2.6471 2.4 2.4 2.4 2.4 2.4 1.9108 1.6201 1.5554 1.5738 2.0286 2.0533 2.2004 1.9564 1.906 1.6288 3.5255 1.8823 1.9789 2.0583 2.3909 2.4465 2.4924 2.5551 2.4805 2.2524 2.2033 2.4089 2.4044 2.2576 1.9637 2.0156 2.2344 2.0799 2.1719 2.121 2.1184 2.123 1.6885 1.3154 1.2937 2.0846 2.9636 2.0135 2.3515 2.5554 2.544 2.5798 2.7831 3.0182 4.721 3.8663 3.931 4.7342 3.9648 3.3343 3.1092 3.2928 3.4005 3.5023 3 2.9975 2.7942 5.394861 2.2875 2.544 1.5163 3.5171 3.4152 3.3721 1.0982 0.5268 0.3547 0.8626 3.3687 1.3575 0.8993 0.8448 0.8788 0.9718 0.9312 1.1426 1.0418 2 2.2297 2.3374 2.1597 5 1.9733 2 2.4635 2.5042 2.3394 2.2496 2.839 3.0912 3.1929 2.9068 2.3952 2.3711 2.4667 2.8547 3.2136 3.029 3.318 3.3267 3.4219 3.2884 3.2823 3.4161 3.0195 2.8589 2.7729 3.8388 3.1553 3.8606 3.8269 3.3307 3.1998 3 2.8454 2.9078 2.8166 2.774 2.7187 2.3735 3.117 2.8703 2.7645 2.5067 2.3449 2.3252 2.1471 2.8125 2.8232 1.8033 2 1.978 2.014 2.2335 2.2045 2.2265 2.3549 2 3.7251 3.7257 2.0413 2.2009 2.2048 2.3411 2.1686 2.4506 2.0184 2.1 2.1108 2.0983 2.3903 2.7693 2.7578 2.7875 1.6675 1.5866 1.8309 3.1 3.0658 2.9146 2.3181 2.6104 2.0325 2.314 2.5379 3 2.1996 2.3188 2.2785 2.2514 2.1346 1.9975 1.6599 1 1.6715 1.9056 1.3328 2 1.7621 1.529 1.2728 0.767 4.2805 0.8 0.8393 0.9971 0.9054 1.1596 1.5608 1.9616 2.1013 2.4426 2.9917 3.3359 3.0333 2.4023 2.7268 2.4494 3.3527 2.6326 2.5788 2.5269 3.0299 3.0617 2.6217 2.6678 2.605 2 2.7419 2.5099 1.7549 1.7613 2.5798 2.2123 3.1067 3.7886 3.4414 3.0049 2.6178 2.1664 1.8457 2.4754 2.9022 3.4298 3.8202 2.4905 3 3.4895 3.386 3.4657 4.5295 3.4229 3.2817 3.1564 3.0602 3 2.7228 -999 -999 -999
-999 -999 -999 -999 -999 5.0462 5.1674 5 4.9469 5.4183 5.6977 5.6064 5.3925 5.9858 5.616 9.7941 6.207 5.4542 5.9656 5 4.7684 4.7444 4.6715 4.528 3.9292 2.6442 2.6126 2.0704 1.7811 1.8376 1.8256 1.6667 1.8791 2.4541 3.1761 3.3207 3.3442 3.0526 2 2.3266 2.3788 2.996 3.6826 4 3.8584 4.1052 4.599 4.5555 3.3513 3.1923 3.2787 2.4993 1.9387 2.2961 2.0402 1.7525 1.6805 1.5815 1.6134 1.6315 1.8973 2.3808 3.059 3.3798 3.5206 3.5307 2.4514 2.6385 4.1398 4.1509 4.1525 3.8386 3.234 3.5501 2.4 2.4624 2.921 2.4 2.3046 2 2.2191 2.1266 2.356 2.2 2.1786 2.0951 1.8606 1.5738 1.1656 3.3033 1.4638 1.4233 1.9902 2.088 2.2865 2.2508 2.5564 2.7137 2.6416 2.8002 2.6614 2.5141 2.4786 2.3886 2.5713 2.5589 2.2385 2.1531 2.313 2.2073 2 1.8173 1.3503 1.2281 2.0514 3.0464 2 2.067 2.7456 2.8254 2.7956 2.5174 3.1908 4 4.3385 4.1965 3.6751 3.9294 3.0963 3.1385 3.1065 3.1786 3.1984 3.1778 2.8508 2.7736 5.65326 2.3349 0.2404 1.0923 1.7645 1.1098 1.2899 0.4293 0.7049 0.688 0.9349 3.3821 1.8 1.8 1.5669 1.2632 1.3268 1.3221 1.7063 1.9942 2.1959 9.9634 2.5968 2.602 5.160661 2.2383 2.4531 2.6007 2.2 2.3178 2.6455 2.658 2.4676 2.9354 2.8485 2.9277 3.0372 3.2669 3.3407 3.3486 3.6814 3.4689 3.4033 3.4165 3.1259 3.3838 3.3923 2.5177 3 3.3157 3.5098 3.2693 3.4964 3.4025 3.5221 3.0888 3.0277 2.8259 2.8817 2.8557 2.7586 2.8673 3 2.9823 2.9816 2.699 2.4314 2.4115 2.3005 2.2045 2.0268 2.8284 3.4606 4.5481 2 2.1155 2.1199 2.371 2.0793 2.304 3.997 3.7868 2 2.2366 2.5248 2.37 2.4842 2.562 2.1235 2.2018 2.0956 1.9847 2 3 3 2 3 3.658 3.0315 3.1 3.1 3.1 2.5232 2.8171 2.5481 2.1647 2.028 2.1554 2.3498 2.2088 2.1313 2.3 2.2526 2.0975 1.8614 1.487 1.1269 1.0101 1.4904 1.7156 1 1.11 1.0741 0.8872 0.5668 4.0767 0.7963 0.8397 0.9502 0.9493 1.0836 1.2917 1.8362 2.2861 3.0377 3.1455 3.2224 2.6367 2.8829 2.1901 2.6857 3.0934 2.8097 2.9116 3 2.9629 3 2.9935 2.9716 2.8638 2 2.536 2.2615 1.5433 1.8786 2.4743 2.3802 3.1622 3.2095 2.517 2.4541 2.2698 2.091 1.9567 2.0554 3 3 3.4302 2.9438 3 4.3992 3.6767 3.76 4.2048 4.8749 3.7477 3.0823 3.0287 3 3.0791 -999 -999 -999
-999 -999 -999 -999 -999 5.7135 5.8674 6.057 5.5305 5.6256 5.676 5.7 5.7 11.4138 6 10.6601 7.8263 5.4798 5.6088 6.6696 4.5738 4.5059 4.5381 4.4063 4.045 4 2.9056 2.3753 2.6699 2.7907 2.4412 2.3455 2.4477 2.7378 2.6457 2.4382 2.4161 2.3367 2 2.7986 2.9101 4 3 3.1702 3.8977 4.834 4.5697 3.5622 3.5815 2.7575 2.3592 2.1848 2.3975 2.019 2.1602 2.343 1.4418 1.6118 1.7286 1.9198 1.9807 2.6917 3.0336 3.5118 3.5237 3.6558 3 2.3599 4 4.6618 4.0817 3.3873 3.6034 3.133 3.1828 3.2209 3 2.4731 2.2083 2.1956 2.2856 2.2601 2.3907 2.2438 2.0612 2.0149 1.8045 1.7473 1.7184 2.158 2.2813 1.812 1.8804 1.9627 2.3146 2.0415 2.1892 2.3879 2.1092 2.6364 2.2008 2.3204 2.2197 2.1602 2.2484 2.3483 2.2361 2.1641 2.0425 1.9438 1.8851 1.6352 1.4126 1.6045 3.1302 3.1647 2.3895 2.7038 3 3.1147 3.3376 2.8676 2.9713 3.7541 4.2795 4.6283 3.5427 3.3538 3.0812 3.2628 3.1 3.3886 3.174 3.131 2.9124 3.1487 5.573129 2.4708 1.1541 2.1008 1.8905 1.5224 1.5506 0.8878 0.9843 1.4442 1.5304 2.0861 3.4402 1.7207 1.7619 1.4641 1.7907 1.5031 1.6155 1.9229 2.1324 2.0351 7.0394 1.8354 5.638029 2.7993 2.2495 2.3746 2.2068 2.2116 2.8051 2.1517 2.4431 2.5671 2.547 2.8685 3.1773 3.3325 2.9935 2.9702 3.2119 3.2666 3.179 3.0119 3.2561 3.5295 3.3929 3.6761 3.132 3.8683 3.3958 3.7001 3.4708 3.562 3.5618 3.5085 3.3438 3.115 3.1872 2.9726 2.9251 3.0449 2.8549 3.1056 3.1853 3.051 2.8596 2.6347 2.4997 2.4636 2.1633 1.9246 2.1562 4.6838 3.8126 2.3526 2.8333 2.843 3.4794 3.997 3.997 2.5382 2.3856 2.6388 2.5077 2.4939 2.4936 2.6369 2.4523 2.403 2.1 2.0674 2.5597 3.0487 4 4 3.1562 3.1314 3.5816 3.2173 3.1913 3.0985 3.0648 3.0141 2.8625 2 2.2265 2.3428 2.1206 1.9489 2.2083 2.2333 2.2984 2.104 1.3354 1.3 1.5296 1 1 1.741 1.2927 0.6885 0.5826 0.6 3.896 3.9279 0.8274 0.9314 0.9444 1.0052 1.114 1.3112 1.5548 1.8603 2.7721 2.9336 3.0199 2.6655 1.2354 3.0755 3.6418 3 3.3543 3.123 3.3818 3.1617 3.2477 3.3727 3.2043 2.3484 2 2.2035 2.2633 2.1332 2.6308 2.5885 3 2.2959 2.5367 2.5616 2.6 2.4393 2.5237 2.1957 2.3259 2.133 4.2536 2.5249 3.1725 5.1592 4.7408 4.2027 4.143 4.3323 4.0152 3.9981 3 3.0652 3.0474 2.9134 -999 -999 -999
-999 -999 -999 -999 5.8097 6.2538 6.0204 6.409 6.1991 7 7.0453 9.2915 7 6.6858 6 11.71 7.6453 5.5881 5.49 6 4.7492 4.4762 4.6312 4.2915 4.0017 4.0013 4.0597 3.2737 3.0764 3.0707 2.5554 2.4023 2.6987 2.8876 2.9045 3.251 2 3.3532 2.7161 4.1334 4.0989 4.1612 4.3714 4.0827 4.5181 4.9682 4.8381 4.102 3.7882 3.2737 2.5404 1.9073 2.5126 2.1246 2.009 2.1178 1.8942 1.9373 2 2.167 2.3 2.3 3.4136 3.7866 3.5456 3.6799 3 2 4.1418 2.6034 3.7754 3.01 2.6873 2.5151 2.9394 3.6963 3.3497 2.4 1.2883 2.0755 2.2 2.406 2.4254 2.3275 2.1885 1.9994 1.8145 1.6809 1.8146 1.5091 1.606 2.4723 2.467 1.8125 2.3544 2 2.1359 2.3595 2.3303 2.4063 2.384 2.3652 2.1731 2.1782 2.1834 2.3367 2.2083 2.3456 2.2202 2.0772 2.1425 1.4854 1.3014 1.7128 2.9631 2.0936 2.5413 2.842 3.0063 3.2667 3.0632 2.9025 2.952 3.2767 3.6193 4.4872 3.5567 3.1819 3.1018 3.1548 2.9558 3.3527 3.4359 3.0758 3.1237 3.1724 5.620588 2.2176 1.3202 2.065 1.9782 1.8412 2.2288 1.3257 1.7515 1.7458 2 2.4518 3.4865 2.5421 1.8591 1.7035 2 1.9801 1.954 2.0566 2.1199 2.1008 7.4912 5.0017 5.132553 2.5581 2.5848 2.7782 2.2524 2.7434 2.8536 2.1408 2.6419 2.4728 2.5502 2.8824 2.965 2.9285 2.5352 2.6366 3.096 3.0008 3.0906 3.0552 3.2098 3.2405 3.4233 3.3124 3.0888 3.3652 3.773 3.6759 3.592 3.4183 3.5789 3.5794 3.2277 3.5993 3.4481 3.2843 3 3.6223 3.0149 3.2398 3.1937 3 2.7977 2.7121 2.7356 2.748 2.5671 2.3484 2.2906 2.259 2.8475 2.8465 2.8319 2.3515 3.0174 3.8832 3.893 2.4 2.4 2.5983 2.6344 2.7356 2.5522 2.5491 2.4204 2.1151 2.0557 2.0486 3 3.7353 4.3088 4 4.2756 3.5956 3.6327 3.3902 3.2991 3.0119 3.1 3.1 2.4353 2.5102 2.3 2.3656 2.537 2.1357 1.2029 1.8315 2.3587 1.8738 1.6372 1.3234 1.4647 1.6129 1 1.6274 1.2628 0.9678 0.728 0.6 3.9817 0.4473 0.9 0.8874 0.8177 0.8803 1 1.1034 1.2863 1.5653 2.1984 2.8597 2.7101 1.8814 3.1259 3.3138 3.613 3.0738 3.0309 3.3924 3.2323 3.3627 3.2771 2.9523 2.9163 2.7671 1.8994 1.9347 2.1563 3.2447 3.208 2.967 2.2971 2.1143 2.5695 2.3991 2.5074 2.6 2.6 2.4472 2.3078 2 8.2193 3 3 4.1908 4.2126 4.5232 4.4216 4.2099 4.0393 3.0266 3.0853 3.0309 2.0348 3.9426 2.7703 -999 -999
-999 -999 -999 -999 6.5161 6.5812 6.9668 7.0416 6.9105 7 7.1037 6.2759 8.0245 11.267 15.54 15.6476 10.5361 5.5117 5.6076 5.4022 5.4489 4.7453 4.6912 4.1765 4.1588 4.3831 4.3665 4.0828 4.5325 4.8275 3.8389 3.526 3.5952 3.9322 4.2642 4.4872 4.0353 4.4396 4.4728 4.6802 4.3844 4.3263 4.6331 4.6848 4.6599 4.064 4.4009 3.7563 3.3986 2.4798 1.8901 1.7914 1.9744 2.3778 2.596 1.6914 1.6979 1.849 2.0503 2.3973 2.5 3.0346 3.2845 3.5656 3.5357 3.6136 3.1376 3 3.6457 4.6925 4 2.8527 2.6007 2.8569 3.2323 3.4342 3.1774 1.8452 1.9216 2.262 2.2127 2.4375 2.4375 2.3693 2.129 1.9999 1.9635 1.8813 1.863 1.5511 1.3249 1.4326 1.8059 2 2 2.1149 2.0987 2.1809 2.3244 2.3893 2.3068 2.3581 2.262 2.2613 2.391 2.336 2.3 2.4836 2.3534 2.4 2.3853 1.99 1.5522 2.9447 2.9427 2.319 2.6114 2.6831 3.0646 3.128 3.3644 2.9798 2.9908 3.1496 3.1857 4.1374 4.4097 3.1734 3.3556 3.1003 3 3 3 3 3.5643 3.168 5.644269 2.4592 1.8523 1.8114 1.5978 1.693 2.6069 2.1407 2.0668 2.1197 2.2102 2.1339 3.5123 2.639 1.9218 1.853 2.0276 2 2 2.4395 2.1489 2.1335 2.2852 2.7266 5.420844 2.7355 2.7173 2.599 2.2596 2.147 2.9389 3.0417 2.0655 2.3372 3.4707 3.2598 2.5002 2.778 2.3166 2.5412 3.0309 2.8357 2.8515 2.9836 3.1943 3.1577 3.1519 3.0851 2.29 3.8042 3.7504 3.6957 3.7021 3.7273 3.3736 3.1875 3.4491 3.8081 3.3795 3.2815 4.0418 4.0354 3.5141 3.1165 3.0715 2.8477 2.8614 2.8558 2.8477 2.8375 2.6455 2.4138 2.4363 2.7281 2.5897 2.3177 2.231 2.9081 2.1126 3.8554 2.3763 2.3839 2.4333 3 2.9363 3 2.9802 2.6297 2.4266 2.2694 2.317 3.492 3.4019 3.391 3 4.7933 4 3.96 3.742 3.6043 3.1117 3.1 3.1 3.0005 3 2.5088 2.1945 2.1111 2.0302 2.3689 2.462 1.497 1.0742 1.46 1.619 1.4237 1.3192 1.3353 2.2763 1.9685 1.8225 1.133 0.873 0.7917 3.8555 1.1653 0.9706 0.8471 0.8262 0.8079 1 1.0284 1.0276 1.3299 2.0281 2.5914 2.9799 1.2362 3.3886 3.376 4 3.0031 3 2.6092 3.0274 3 2.9818 2 1.5316 1.9293 1.8294 2.0326 2.6359 3.636 3.7844 2.9298 2.7333 2.5874 2.5697 2.6312 2.6041 2.6 2.5747 2.5281 2.5805 2.5505 3.6538 3 4.0345 5.7432 4.2566 4.2034 4.0916 4.0654 3.7776 3.2518 2.9659 2.8991 2.5031 23.3683 9.02 -999 -999
-999 -999 -999 -999 6.6427 6.6859 6.7881 6.9221 7.0384 7.2223 7.1792 8.4844 15.2996 15.54 15.54 10.6917 5.7063 5.6965 5.394 5.8572 6.1112 5 4.8872 4.9851 4.7488 3.9931 4.1742 3.7769 4.4476 4.6279 4.2134 3.9746 4.1184 4.2503 4.2263 4.3884 4.1327 4.5456 4.4052 4.3571 4.4693 4.9442 5.0593 4.7641 4.8517 4.3454 3.7812 3.4581 3.058 2 2 2 1.9665 2.4322 2.5678 2.1432 1.8971 1.9343 2.1963 2.3129 2.6506 3.1643 3.3826 3.3207 3.2351 3.649 3.4363 2.7598 2.9071 3.3492 2.5462 2.4062 2.189 2 2.8324 1.9113 1.49 2.2731 2.0939 2.2519 2.2849 2.3793 2.3786 2.3579 2.1164 2.0065 1.9414 1.8443 1.7895 1.8033 1.5119 1.4054 1.6409 1.9043 2 1.9155 1.9553 2.5203 2.7067 2.2823 2.0842 2.4447 2.3244 2.237 2 2.3126 2.3454 2.3644 2.4 2.4 2.3988 1.4788 2.8529 2.935 2.016 2.1339 2.3855 2.6109 2.7228 2.8509 3.1607 2.9958 3.0611 3.3044 2.9653 4.4178 4.4236 3.3081 3.7299 3.1672 3.0355 2.9263 2.905 2.9564 3.3965 3.1901 5.872609 2.4789 2.2265 1.8302 1.6308 1.6054 1.6123 2.579 1.4857 1.9913 2.3159 3 3.5081 2.4509 2.3995 2.3733 2.3105 2.0486 2.0186 2.4244 2.5805 2.352 2.4413 2.9739 6 2.9275 2.6855 2.7835 3.088 2.871 2.2572 2.2367 2.4561 2.5741 2.4115 2.4665 2.5745 2.6733 2.2569 2.3208 2.5256 2.7652 2.5786 2.8472 3.2426 3.2294 3.3208 2.7968 3.0162 3.7089 3.8432 3.7083 3.8398 3.8985 3.3647 3.2379 3.2327 3.3339 3.4569 3.0134 3.5936 3.9089 3.645 3.4707 3.247 2.978 2.9474 2.922 3.0176 2.9536 2.7033 2.605 2.3753 2.2084 2.487 2.2368 2.0066 3.2575 3.4046 4.1205 2.6345 2.4936 2.4633 2.8865 2.3352 2.6451 2.3923 2.5003 2.3601 2.6291 3.0022 3.522 4 4 4.1194 4 4 3.1006 3.4508 3.8 3.0485 3.1 3.1 2.095 2.8608 2.6341 2.7035 1.8536 2.4375 2.2916 2.3979 2.0865 1.1923 1.2212 1.1306 1.068 1.5402 1.5578 1.9082 3 1.6643 1.9366 1.8002 1.2284 3.8769 1 0.9425 1 1 0.9503 0.9729 0.9022 1.7515 1.3723 1.7611 2.4291 2.6508 2.9991 3.7974 3.9739 3.3926 2.8599 2.4334 3.0245 3.0247 3.0015 3 3.678 3.8203 1.8791 1.6813 1.9693 2.7119 3.1254 3.6622 2.7837 2.7524 2.7383 2.7585 2.9245 2.8092 2.8627 2.8869 2.6356 2.839 2.9931 3.0038 2.6406 5.0883 3.9413 4.3042 4.3109 4.0392 3.4431 3.5982 3.2267 2.6152 2.6587 2.226 4.2267 6.9078 -999 -999
-999 -999 -999 -999 6.5998 6.7 6.7965 6.8323 7.3061 7.3293 7.5271 7.1709 9.2191 16.0929 9.1742 7.8139 6.0842 5.9951 6.1014 5.893 7.8485 7.3673 4.3273 4.2376 4.3469 4 4.5513 4.7569 4.8235 4.6086 4.3959 4.1779 4.0717 3.7127 4.1742 4.2066 4.2735 4.2875 4.6006 4.6281 4.8613 4.9504 5.0143 4.6622 4.7424 4.1152 3.7442 3.2989 2.7012 2.2824 2.4182 2 1.9314 2.8905 2.6005 2.3399 2.1499 2.2152 2.3474 2.5032 2.5643 3.0279 3.0088 2.858 2.1187 3.6095 3.3725 3 2.7739 3.5254 2.0375 2 1.8249 1.3315 1.5855 2 1.7193 2.3235 2.3904 2.2483 2.2338 2.1597 2.0938 2.0414 2.0043 2 1.9359 1.8391 1.8107 1.7996 1.7362 1.5874 1.5311 1.6155 1.6634 1.6554 1.665 1.7946 2.7082 2.4278 2.0829 2.0066 2.3138 2.5746 2.6203 2.5944 2.8765 2.8372 2.3583 2.3052 2.3803 2.4595 2.8103 2.4406 2.1546 2.4973 2.0538 2.2307 2.1984 2.1467 2 3 3 3 3 4 4.8716 4.7755 3.8471 3.2319 3.2729 3.2294 3.03 3.1 3.6103 3.1917 5.846193 2.614 2.469 2.1471 1.6534 1.5888 1.595 2 1.8282 2.5568 2.8064 2.8032 3.629 3.2419 3.1623 2.9508 3 3.3227 3 2.9307 3.2277 2.9874 2.8343 2.9407 6.212905 3 3.1721 3.1276 3.1478 3.1709 2.512 2.3092 2.5262 2.3188 2.3852 2.4432 2.5025 2.8495 2.4876 2.2697 2.4985 2.5732 2.6729 2.9034 3.1053 2.7401 2.4712 3.0174 3.0505 3.7246 3.9987 3.9461 3.9904 3.9762 3.6871 3.3663 3.3287 2.9604 3.1386 3.1876 3.5665 3.539 3.5015 3.7411 3.6278 3.3053 3.0998 3.1131 3.0518 2.7915 2.8 2.7639 2.373 2.0157 2.9873 4.0417 5 4.6705 3.1311 3.6014 4.1257 2.6151 2.1581 2.3609 2.3669 2.4347 2.3751 2.5378 2.6896 3.6384 3.849 3.9607 4 4 4.0097 4 3.6299 3 3 3 3.1636 3.101 2.6555 2 2.4725 2.9 2.8065 2.3338 2.5272 2.6172 2.5 1.1243 1.459 1.4397 1.1509 1.5969 1 1.8002 2.1671 2.1449 1.8431 2.0266 2.253 2.0485 4 1.1472 0.9507 0.9799 1.472 1.9655 1.7184 1.9322 2 2 1.8435 3.4105 2 3.7815 3.9397 3.8935 3.1495 2.8051 2.5473 2.8959 2.9911 3.0778 3.051 3.4143 3.0523 2.2359 1.7017 1.9196 2.4056 2.9682 3.6113 2.9508 4.3945 3.1659 2.9469 3.0162 3.08 3.0371 3 3.0043 3.015 3.0181 3.0441 3 5.7155 4.0723 4.1614 4.5708 4.176 3.7416 3.5532 3.1279 3.1008 3.0396 2.9222 2.4134 -999 -999 -999
-999 -999 -999 6.5357 6.7942 6.7484 6.8039 7.1981 7.4236 8.1058 8.2451 8.1524 7.109 6.9842 6.6017 6.4288 5.7398 5.4454 5.2798 5.1448 8 7.5413 4.4571 4.2916 4.2931 4.4226 4.6613 4.7606 4.5492 4.7415 4.3596 4.0023 3.0641 3.5225 3.0174 4.1572 4.0369 4.314 5.0641 5.2804 5.4281 5.1635 4.8223 5 4.5953 4.5883 3.8798 3.1836 2.546 2.3411 2.5312 2.143 2.7198 3.1866 2.7092 2.4081 2.3251 2.4 2.3705 2.3722 2.3372 2.1111 3.0536 3.0882 3.0616 3.2743 3.3934 3.2214 2.5364 3.8998 2.4797 2.7606 3 2.3208 2.4687 2.3238 2.5102 2.2823 2.3043 2.3695 2.1956 2.0983 2.0159 1.9046 1.9319 2.1972 2.1884 1.8486 1.8662 1.7539 1.5168 1.518 1.4502 1.4104 1.3802 1.4711 1.4898 1.6263 1.6169 1.9257 1.7452 1.4085 1.4925 3.055 1 1 1.7319 2.802 3.1808 3.0058 3.53 3.53 3.53 2.135 2.3068 2.1048 2.3578 2.8785 3 3.9509 3.3154 3.2556 3.6472 4.0808 4.0353 4 4.0371 4.6468 4.3136 3.5887 3.9 3.9 3.1813 3.1 3.2604 3.085 5.5 2.4403 2.2264 2.1431 1.7916 1.5352 1.8489 1.7572 1.7387 1.7695 2.9058 2.7965 3.3718 3.8373 3.872 3.8747 3.8841 3.9599 4.0754 4.0134 3.8126 3.4818 3.359 3.0892 6.383245 3.1348 3.1883 3.0735 3.0848 2.8997 2.6226 2.4725 2.5617 2.5759 2.4002 2.1946 2.5305 2.6785 2.475 2.1206 2.5645 2.5897 2.728 3 2.6386 2.0108 3.3798 3.7282 3.4839 3.8753 4.0318 4.364 4.6032 5.0238 3.7246 3.3774 3.2632 2.657 2.8701 3.1154 3.6358 3.747 3.7043 3.8625 3.7747 3.6325 3.3939 3.216 3.0376 2.7842 2.0941 2.8852 2.6016 2.9247 2.7542 2.7249 2.5211 3 2.8255 3.2073 4.2891 4.0022 2.6974 2.5176 2.4953 2.7064 2.5813 2.568 3.2239 3.9888 3.9233 3.6028 3.4932 3.9605 4 3.2435 3.5 3.5696 3.5197 3.8751 3.767 3.3093 2.2134 3.1569 2.4759 2.1603 2.0989 2.5387 2.7722 2.7625 2.0607 1.4176 1.8762 1.8307 1.584 1.8947 2.0012 1.304 1.5974 4.2642 2.2693 2.2 2.373 2.0121 4.1814 0.9957 0.919 0.9765 1.7613 2.0876 2.346 2.4726 2 2.0663 2.5457 3.6384 3.1769 3.2175 4 3.7334 3.2408 2.9909 2.8182 2.7338 2.9931 3.0839 3.1366 4 3.8019 4 1.9198 2.0301 2.3343 2.8214 3.4276 3.9651 7.3778 3.9477 3.2051 3.1395 3.3173 3.1277 3.1038 3.1618 3.8168 3.4589 3.229 3.9487 3.9693 4.1961 4.0934 4.5585 4.4197 4.156 3.6863 3.4811 3.1968 3.0406 3.0152 2.8683 -999 -999 -999
-999 -999 -999 6.839 6.9701 8.2794 7.5122 8.422 7.7528 5.0734 7.7874 7.3602 7 7 6.4335 6.113 5.8354 5.5494 4.9772 4.737 6.2753 7.3804 4.8095 4.7428 4.3458 4.5009 4.6659 4.6437 4.3725 4.1983 3.8991 3.2707 3.518 4.3135 4.2126 4.3178 3 4.4246 4.9766 5 5.4182 5.067 4.9382 4 5.1438 4 4 2.9897 2.6235 2.3688 2.3961 2.4643 3.2107 3.2502 2.8051 2.6258 2.2703 2.343 2.3301 2.1294 2.442 2.1888 3.2142 3.5392 3.4 3.0591 3.0867 3.3199 2.2669 4.153 3.0801 3.5214 3.1846 2.3675 2.1778 2.5 2.5677 2.471 2.599 2.4315 2.4503 2.3512 2.2095 2.261 2.6992 2.4956 2.5476 1.8959 1.7485 1.6999 1.7338 1.6354 1.3335 1.3586 1.3659 1.4172 1.4109 1.5149 1.8104 1.8605 1.643 1.4582 1.4391 3.055 1 1 1.7169 2.0178 2.1318 2.383 2.7034 2.4564 3.4706 2.0705 2 2 2.2098 2.7447 3.2224 3.9414 4 3.804 3.6894 4.2462 4.2117 3.9205 4.1262 4.6931 5.5494 3.3094 6.888599 6.9 6.617738 6.1 6.1 6.096356 5.568776 2.4684 2.3941 2.0239 1.9131 1.9048 1.82 1.645 1.9 1.8168 2.8537 2.5 2.5073 2.7434 6.431488 6 6.048778 3 3.5648 3.2733 3.5725 3.8546 4.0026 4.097 3.3568 0.7327 3.2833 3.0365 3.1451 3 2.6855 2.3613 2.2862 2.3141 2.5396 2.5412 2.3221 2.4533 2.4002 2.2195 2.707 2.895 2.8642 2.9022 2.0324 3.2787 3.4613 3.579 4.1683 4.7799 5.2099 4.4363 4 3.9871 3.6695 3.3958 2.9168 2.9531 3.0798 3.1232 3.6956 3.6094 3.7238 3.8248 3.7135 3.5505 3.1816 3.043 2 3.9664 3.647 3 2.7242 2.8407 2.7843 2.4624 2.9273 2.6151 2.527 2.2997 2.2791 3.9213 3.9674 4.0674 2.6596 3.2415 2.8638 2.5417 3.6705 3.9712 3.911 3.7137 3 3 3.454 3.8689 3.568 3.6294 4.0152 4.0107 3.5638 2.5495 3.4414 3.1 3.1 2.6252 2.0587 2.4201 2.5562 2.6213 1.9157 1.8551 1.9022 1.809 1.7157 1.8047 2.0584 2.2474 1.9111 2.7368 2.4548 2.1144 2.2303 4.0884 0.9174 0.7937 0.863 0.9168 1.3839 1.9977 2.453 5.6525 2.6941 2.4141 2.7553 2.0492 3.0632 3.3066 3.7809 3.7169 3.5019 2.6466 2.7696 2.7401 3.1092 3.1733 3.2376 3.9473 3.797 3.9609 2 2.1515 2.4225 3.1717 3.5456 3.8675 4.0363 4.0635 3.9157 3.4577 3.1732 3.0507 3.1646 3.4746 4.2373 3.582 4.4365 4.3536 4.1412 4.2395 4.1373 4.6375 4.7032 4.5494 4 3.8315 3.8272 4.0955 3.8619 3.2381 -999 -999 -999
-999 -999 6.8779 7 7.3169 7.5115 7.6125 8.1328 5.9211 4.2059 8.0855 8.0276 7.3715 7.1676 6.4878 6.0584 5.806 5.6774 5.1715 4.8991 7.2547 5.2669 4.5463 5 4.584 4.4749 4.6827 4.5076 4.5021 3.9936 3.9397 4 4.2336 4.2476 4.4796 4.4659 4 4.7 4.7074 5 5.4161 4.9499 4.5799 5.4311 5.0971 4 4 3.3049 3 2.8963 3 3.2057 3.0266 3 2.9082 2.8574 2.3557 3.0467 3.8155 2.514 2.2644 3.0307 3.1 3.2881 3.4991 3.4 3 3.4988 2.1758 4.3271 3.9564 3.0532 2.4131 2.1573 2.5 2.5 2.5089 2.4917 2.8137 2.7306 2.827 3 2.8409 3.0837 2.9027 2.3899 2.4854 2.1957 1.8908 1.9401 1.985 1.9955 1.9404 1.7684 1.7986 1.5917 1.5121 1.5809 1.738 1.8871 1.8251 1.7078 1.7037 2.5429 1 1 1.4448 1.7251 1.7569 2.1166 2.6843 2 2.7407 1.8172 2 2.6219 2.815 3.0722 3.3547 3.9201 4 2.9318 2.9971 4 4.0107 3.5817 4.3759 4.3399 4.8632 4.6746 6.720093 6.9 3.1591 3.1918 3.2124 3.1959 3.2819 3.0344 2.3702 2 2 1.8107 1.9046 1.998 1.952 2.0353 2.5769 2.7024 2.4509 2.5569 6.015347 3.1562 5.932447 5.953832 6 6.44806 6.496265 6.426327 3.5847 4.4479 7.544977 4.4096 3.3055 3.0935 3.0128 3 3 2.9928 3 2.5133 2.3633 2.7372 2.5105 2.4 2.4461 2.4393 3 3.237 3 3.02 3.4114 3.9882 3.5825 4.1828 4.1495 5.0633 5.5145 4.3065 3.9969 3.8945 3.8956 3.6438 3.2489 3.1966 3.6218 3.9448 3.9387 3.8036 3.7932 3.7456 3.4453 3.2385 3.5609 4.1022 4 4.0696 3.62 3.22 3.253 3.1983 2.9973 2.9299 3 3.0517 2.6238 2.6961 2.5534 2.7584 3.44 4.1097 4.1413 3.0658 2.9966 3.5512 4 4.2253 4.0295 3.9877 3 3 3.6445 3.801 3.6489 3.629 3.6103 4.0008 3.7672 2.3502 3.1601 3.1662 3.1601 2.1102 2.7038 3.173 2.0192 2 2.0251 2.0107 1.8321 2.2396 2.4453 1.9037 2.0512 2.0011 1.543 2.2446 2.1008 1.6525 2.348 4.134 0.948 0.8108 0.8569 1 0.9288 1.0806 2.4112 2.3075 1.7075 2.2105 0 2.1371 2.5348 3.1195 2.2604 3.8482 3.6989 3.2556 2.3973 2.3707 3 3.1512 2.6086 3 2.2855 2.6577 2.3209 2.242 2.3896 2.9545 3.273 3.6186 3.8277 3.6615 2.6516 2.3302 2.9906 2.4885 2.8049 3.1824 3.5121 3.6145 3.81 4.0089 4.0781 4 4.5105 4.9216 4.7628 4.6556 4.0843 4.0594 4.3724 4.3075 4.0159 3.7657 4.5752 -999 -999
-999 -999 7.0035 7.4526 7.6766 7.6657 8.0697 8.2626 8.1041 8.0081 8.2982 8 7.1353 6.6289 6.2847 6.1665 6 5.6839 5.3536 4.9477 4.8167 5.1365 4.7355 5 4.9411 5 4.671 4.7169 4.618 4.3676 4.487 4.6702 4.5825 4.6492 4.6148 4.6024 4.0714 4.8624 4.8021 6 4.9672 4.477 5.334 5.1649 6.0404 4.2441 4 3.9725 3.4329 4 4.403 4.0519 2.9917 2.307 2.8398 2.7795 2.6527 3.1735 2.969 2.943 3.0373 3.1188 3.1 3.381 3.603 3.3679 3.3877 4 2.4715 4.7426 4.2031 2.7768 2.5 2.3223 2.5 2.6223 2.5 2.4836 2.8329 2.9818 3.058 3.6738 3.7042 2.887 2.675 2.5196 2.5416 2.3077 2 1.9987 1.9663 1.8359 1.8133 1.7151 1.8727 1.8557 1.7517 1.5817 1.5946 1.6269 1.5708 1.521 1.404 1.1389 1.0393 1.8194 1.9354 2.0951 2.0673 2.0968 2.5856 2.0442 2.7319 1.958 1.6839 2.1244 2.7189 3.284 4.0513 4.019 4 2.8454 2.6898 2.647 2.4028 2.2844 2.9443 4.6562 4.0119 4.7788 4.0952 6.1 6.104975 3.7713 3.5175 3.2234 3.1561 3.196 2.6109 2.3058 2.1705 2 2.0635 2.0617 2.2686 2.5549 2.5996 2.3215 3.4584 2.3509 6.055973 2.7871 2.3971 2.8932 3.0447 3.6428 3.3859 6.636035 3.655 4.2063 10.20651 4.8834 4 3.3642 3.806 3.9933 3 3.1575 3 2.953 2.688 2.7293 2.4546 2.6458 2.6353 2.5234 2.9708 3.4576 3.22 3.7024 3.7008 4.3836 4.806 4.4396 4.2063 4.8779 4.7233 4.1342 3.9264 3.7553 3.9333 4.0372 4.2113 4.2073 3.8791 4.1767 4.269 3.9192 3.5942 3.1617 4 4 3.9843 3.9155 3.9319 3.8916 3.7285 3.5804 3.5289 3.501 3.2831 3 3 3 2.7852 2.8344 2.4759 2.7309 3.5083 4 3.8384 4.0423 3.8608 3.8472 4 4 3.9833 4.0854 3.3793 3 3.9871 3.8314 3.7665 3.6247 3.5259 3.5 3.3714 3.2878 2.9644 2 2.8483 2.3026 2.5512 2.4003 2.1272 2.1742 2.1925 2.1503 1.3139 2.7637 2.8156 2.8317 2.1989 2.3782 2.6191 2.802 2.3047 2.4061 2.3466 4.2553 1.0567 0.8629 0.8441 1 1 1 2.437 2.8331 1.8037 2.7339 2.0439 2.5793 3.3353 2.9759 3.7791 3.9576 3.3476 3.0298 2.73 2.4735 2.4395 3 2.1492 2.6241 3.4006 3 3 2.7182 2.6383 3.2031 3.2165 3.8148 3.7803 3.5486 3.2925 2.6173 2.5171 3.3799 2.7316 3.0012 3.6438 3.9157 3.6117 4.121 4.1458 10.1912 5.0749 5 5 4.8743 4.6942 4.1518 4.4656 4.3235 4.168 3.9303 6.6637 -999 -999
-999 -999 7.1358 7.6446 8.8789 8.1797 8.1939 8.0289 8 8.0796 8.484 8 7.1385 7.016 7 6.2158 6.138 6.1856 5.8114 5.2927 5.1776 4.9936 5.1345 5.5243 5 5.1687 5.1635 5.0468 4.7382 4.0162 4.8239 4.7154 4.5436 4.6163 4.7 4.4308 4.1851 5 5.4605 5.1359 4.3881 4.3318 5.0077 6.0239 6.1781 5.6667 4.6133 4 3.878 3.7441 4.05 3.0316 2.5172 2.696 2.6999 2.8943 2.7024 3.049 3.1229 3.015 3.0409 3.1 3.3853 3.6141 3.5394 3.292 3.2772 3.9148 2.9188 4.4997 3.3797 2.1806 2.7285 3.0257 3.1073 3.1103 3.0507 2.7352 2.9795 3.2213 3.9595 5 4.3467 2.9036 2.8007 2.7332 2.6725 2.8765 2.4243 2.1159 1.9699 1.9669 2 2.0276 1.9577 1.9179 1.9061 1.9131 1.8088 1.54 1.59 1.6067 1.6877 1.5011 1.6095 1.8346 1.8658 2.1077 2.2561 2.3915 2.4303 2.0421 1.6221 2.864 1.2773 1.8528 2.6278 3.5318 3.5361 3.8513 3.9933 3.5937 4.8395 3.1989 3.1893 3.1025 3 4.2629 4.4065 4.683 5.2461 4.2338 6.251532 6.456676 6.259399 6.188203 5.956835 6.007986 6 5.888771 2.7838 2.3546 2.5893 2.4184 2.2025 2.2401 2.5451 2.4576 4.0499 3.9667 5.054293 2.2309 2.398 2.8689 3 3.5318 3.4202 6.664479 6.954033 4.0938 7.561538 9.2462 4.9759 4 4.9177 4 4 4 4 4 4 2.5752 2.31 2.7722 2.7982 2.5349 2.9129 3.0217 3.9732 4.0381 4.1469 4.5541 4.4691 4.1046 3.8094 4.0185 4.9766 4.4299 3.9762 3.9683 4 4.1179 4 4 4.2501 4.3717 4.3485 4.5158 3.6765 5.1941 3.8176 3.5695 3.8867 3.822 3.5406 3.8356 3.5887 3.4767 3.6123 3.7407 3.7436 3.8093 3.0456 3 2.9465 2.918 2.6575 3.0094 4 3.9366 3.4522 3.5965 4.3424 4.1059 4 3.9367 3.955 3.8956 4.0458 4.0642 4.0103 3.9657 3.9668 3.8168 3.6608 3.6448 3.3827 3.2041 3.129 2.6315 2 2.5498 2.4238 2.4311 2.0918 2.311 2.2761 2.0417 2.1086 2.6202 1.7303 2.8298 2 2.4257 2.7543 2.7078 2.3381 2.2639 2.4559 4.0288 1.0634 0.9385 0.9748 0.9738 1.0416 1 2.3619 2.8391 2.9786 3.8929 2.0314 3.4584 2.7 2.9923 3.5893 4.4109 3.8164 3.5418 3.5005 2.907 2.6376 2.2184 2.31 2 2.9904 2.9229 3.9056 2.6409 2.5599 2.8611 3.5384 3.7257 3.9277 3.2741 3.0655 3.0375 3.0834 5.5404 3 3.2077 3.5617 3.9188 4.044 4.1717 4.2724 41.9749 5.0002 5 4.9853 4.8517 4.9882 3.9543 4.3577 4.4952 4.3385 4.2092 4.0838 -999 -999
-999 -999 -999 7.7165 9.2047 8.4567 7.8483 7.811 7.4091 7.2596 8.3319 8.2424 7.0889 6.8692 6.608 6.3584 6.09 6.0976 6.1127 5.5819 5.6381 5.5874 5.7604 5.8044 5.2326 5.2842 5.3579 5.0374 4.2136 4.1548 4.8715 4.7566 4.5258 4.5188 4.6637 4.3956 4.3494 5 5 4.8789 4.3606 4.9568 6.4577 6.0532 6.1088 6.097 4.9635 4.8958 4.9911 3.8125 3 3.0603 2.9212 2.7391 2.1717 2.1778 2.8292 3.0906 3.1918 3.1914 3.1053 3.1196 3.8012 4.5713 3.9726 3.5307 3.9017 3 3 3.5144 3.4661 3.1716 3.9653 3.2082 3.2189 3.2354 3.3781 3.3476 3.067 3.6421 4.1999 5.0193 3.927 3.1688 3.0536 2.8848 2.7711 2.8906 2.73 2.0401 1.8464 1.8901 2.0976 2.3675 2.0092 1.857 1.9264 1.7909 1.8864 1.6916 1.9098 1.5568 1.6718 1.7095 1.5656 1.5886 1.6082 2.1516 2.3913 2.376 2.4224 1.8036 1.2724 2.8729 1.8272 1.7834 3.1724 3.2084 3.4888 3.7478 4.1859 5.8002 5.6045 3.9685 3.8891 5.0708 4.3309 4.8367 4.9 4.6706 4.8986 5.0673 3.1043 3.3766 3.4954 3.3523 4.2339 5.9907 3.458 6 2.5283 2.2842 2.1669 2.2082 2.6016 2.2189 2.8875 3.2444 5.486368 5.11341 4.3499 2.2 2.2734 2.9739 3.0308 3.3445 3.5328 3.7078 7 9.592489 5.2344 4.41 4 4.3528 4.5203 4.7252 5.6427 4.3232 4.0336 4.3101 4.0519 2.924 2.8743 2.9871 3 2.8198 3 3.2547 3.4267 3.9216 3.9899 3.7686 3.5471 3.2624 3.1361 3.7135 4.7251 4.7367 4.1929 4 4 4.5128 4.5829 4.3926 4.6362 4.6413 4.9473 5 4.4587 4.1652 3.7924 3.7315 3.529 3.6 3.7166 3.7677 3.4819 3.3128 3.7872 3.8068 3.9444 3.9057 3.5766 3.6947 3.6492 3.0332 3.08 3.2253 3.8467 3.7051 4.6641 3.8725 3.9389 4.262 4.082 4 4 4 3.9266 4.1 4.1 4.1 4 3.7799 3.797 3.7253 3.5058 3.3267 3.1736 2.2757 2.7966 2.491 2.1591 2.0735 2.3745 2.3276 2.3314 2.0528 2.1423 2.0242 1.8766 2.5914 2.1797 2.4872 2.4439 2.3659 2.2459 2.3808 2.3827 4.0483 2.9958 2.9444 2.7515 2.1706 1.4273 2.0702 2.4953 2.8 3.7539 2.0248 2.1163 2.5236 2.7132 2.9972 3.5195 4.0611 4.0422 3.9663 3.3593 3 3.2905 3.0265 2.7905 2.9158 5.8431 3.7006 3.2635 2.5944 2.7274 3.2006 3.5451 4.0344 4 3.3085 3.2049 3.3805 3.1583 3.0391 3.2694 3.5186 3.7 4.1646 5.5476 5.0572 5.0118 5 5.0954 5.0152 5 7.8555 5.826 4.0566 4.0911 5.7644 4.3347 4.3894 4.4091 4.2442 -999
-999 -999 -999 8.1032 9.2793 9.1481 7.9228 8.471 8.5624 7.4643 6.9107 16.3947 7.201 7.2476 7.0867 6.9389 5.8839 5.8934 5.9618 5.8859 5.9964 5.7578 5.9078 5.982 5.7431 5.527 5.3208 5.3802 5.0527 4.8921 4.9507 4.9574 4.4478 4.5038 4.6541 4.4621 4.4162 5 4.9195 4.8675 5.2569 5.6553 5.1 5.6886 6 6.1165 5.6248 4.7329 4.2627 3.5229 3.0313 3.0971 4.6917 3.8739 3.2204 2.8082 3.0549 3.1139 3.2555 3.3949 3.2894 3.4487 4.8236 5.0326 4.4716 3.8291 3.9537 3 2.8317 3.102 3.0234 3.3047 3.4922 3.2639 3.4543 3.604 3.5903 3.6652 3.5212 4.0126 4.5885 4.9514 4 3.4498 3.2758 3.0452 3 3 2.9046 2 2 2.0708 3 4 2.5793 1.9519 1.9857 2.175 2.2331 2.095 2.5024 1.724 1.6582 1.9307 1.4158 1.7086 1.7904 2.1189 2.2489 2.3715 2.0978 1.8462 1.4211 2.8812 2.9706 3.7579 4.0323 3.8624 3.8722 4.2178 5.3831 6.0777 6.2224 5.1028 5.0584 6 5 5 4.9618 4.854 4 4.936 4.8391 3.6515 4.99 4.2422 3.0903 3.1454 3.7384 5.678418 5.618943 2.3153 2.4609 2.5385 2.2991 2.547 3 3.5031 6.039515 2.1203 4.1479 2.4522 3.016 2.9589 3.3755 3.6408 3.7317 3.9251 4.4339 4.2242 4.176 4.2598 3.2094 4.3018 5.1138 6 6 4.4084 4.1533 3.9238 3.0049 3.1662 3.2211 3.5679 3.3166 2.9116 3.0394 3.5148 3.56 3.8331 3.5618 3.7398 3.4147 3.1456 3.1051 3.5575 4.4869 5.3387 5.258 4.9417 5.6519 5.3766 4.9077 5.0999 5.3241 5.4204 5.3445 5 4.1039 3.7883 3.8551 3.47 3.7875 4.019 3.9435 3.7383 3.8306 3.7869 3.314 3.803 3.9056 3.2625 3.8207 4 4 3.2179 3.4419 3.5847 3.8519 4 3.3958 4.1069 4.2239 4.2828 4.4267 4.1409 4.0229 4.0919 4.1 4.1 4.1 4.1575 4.2 4.0061 3.605 3.5838 3.4576 3.2694 2.584 2.188 2.6848 2.6699 2.536 2.0452 2.2 2.3314 2.4827 2.3901 2.3166 2.251 2.1842 2.0073 2.3438 2.4842 2.4 2.3542 2.2771 2.4544 2.5189 4.0372 3 3 2.6208 2.0031 1.1669 2.9597 1 3.6779 0.3986 2.8846 2.0828 2.1768 2.6151 2.6534 3.2681 3.7607 4.3439 3.8356 3.7829 3.9473 3.568 3.412 3.0806 3.0971 6 3.2918 3.1027 2.8265 2.5693 2.5456 3.3555 3.2303 4.1385 3.5776 3.916 3.4384 3.3001 3.4488 3.434 3.6544 3.2293 4.261 4.6659 4.7703 5 5.0298 5.0244 5.2271 5.1101 5 4.7248 4.1193 4.3365 4.5419 4.7922 4.6021 4.4734 4.5285 -999
-999 -999 -999 -999 -999 -999 8.1784 8.279 8.3676 8.1072 7.0116 9.4647 7.8452 7.1511 6.8357 6.7552 6.2614 6.1 6.1246 5.9273 5.8732 5.6396 5.8808 6 5.5858 5.4115 5.2191 4.1422 5.2966 5.1881 5.1122 5.0774 5 4.5244 4.3607 5.0384 5.2403 3.9917 4.1538 5.6294 6.4401 6.3629 5.1762 5.9022 6.1495 5.1133 6.7054 4.834 4.1575 3.9167 2.9708 4.8436 7 3.986 4.8373 5.0917 3.2121 3.3481 3.673 3.6115 4.121 4.2769 4.6618 4.2692 4.4826 3.5156 3.9789 3.4092 3.5867 4.2368 4 3.4454 3.7 3.2462 3.217 3.3485 3.601 3.8141 3.9805 4.4499 4.8756 4.7614 4 3.649 3.4912 3.4428 3.3055 3.1754 3.5559 2.0589 2 2.2969 2.9322 4.0289 2.8082 2.3358 2.2181 2.4 2.4 2.403 2.4219 2.123 1.7173 2.8133 1.323 1.3 1.3 2.1512 2.4349 2.8125 2.8434 1.9767 1.3489 1.7076 3.3224 3.0419 4.4458 5.6614 5 5.0302 6.0525 6 5.5128 5.1705 5.5888 6.5261 5.4173 5.0875 5.2712 4.8531 4.4692 5.2895 4.9742 7.015 5.9733 3.4506 3.5949 3 3.7009 2.8233 5.572985 2.5171 2.5838 2.4266 2.2278 2.728 3.3937 6.6 6.14387 4.0786 2.6545 2.609 3.058 3.094 3.2244 3.7908 4 3.9916 4.2889 9.258 4.5148 4.2333 4.2567 4.783 5 6.1717 5.8846 4.3921 4.1459 3.2751 3.3704 3.2623 4.0131 4.1525 3.8627 2.9955 3 3.6104 3.5899 3.6808 4.0157 3.8614 3.6105 3.2873 3.4121 3.9759 4.6878 5.6531 6.0462 6.4139 6.8815 6.583 6.2547 5.7622 5.2839 5.4461 5.2007 4.8574 3.8118 3.0297 3.7606 3.7259 3.9696 4.304 4.1096 3.7996 3.7738 3.7044 3.2978 3.6981 3.7364 3 3.8991 3.7545 3 3.1333 3.5712 3.4451 3.8112 4.1987 4.1738 4.0343 4.0771 4.4571 4.0441 4.1682 4.6554 4.2755 3.8044 4.1603 4.1468 4 4.0879 4.0602 3.7306 3.5503 3.4018 3.2473 2.0024 2.9326 2.8419 2.6746 2.7601 2.3949 2.4028 2.5805 2.3351 2.419 2.466 2.4332 2.437 2.2315 2.3553 2.3053 2.3706 2.1473 2.3368 2.7794 2.9981 4.1667 4.1549 2.5185 2 1.5788 1.7267 2.7269 2.3943 3.7043 2.8471 2.2861 2.114 2.3791 2.6929 2.2212 3.3815 3.7665 3.9323 4.2373 4.1028 4.0154 3.0837 3.334 3.5901 3.4705 4.7494 3.7441 3.086 2.6892 2.5856 3.0802 3.6252 4 4.0431 3.9038 4.0339 3.5165 3.5177 3.8352 3.6394 3.904 4.0103 4.0352 4.3297 4.4982 5.0672 5.3147 5.1994 5.2606 5.1026 4.2486 5 5.0193 3.0997 4.97 3.7846 5.1343 5.0974 5.1171 -999
-999 -999 -999 -999 -999 -999 8.6026 8.6788 8.2831 8 8.2686 7.781 6.8277 7.2967 6.7659 7.8188 6.219 6.283 6.0675 6.0667 6.0675 5.7168 6 5.727 5.0951 5.2602 5 5.186 5.0675 5.2533 5 5.0533 4.9859 4.1635 5.8252 6.3044 6.314 4.3991 4.4769 5.8319 6.3058 6.7142 6.2786 7.6063 6.3866 5.0461 5.9463 5.4042 3.5957 3.1571 3.1248 3.3693 7 6.4924 5.9765 6.0483 3.9393 4.0328 4.0449 4.2802 4.3117 4.3845 4.4764 4.5428 4.6309 3.4224 3.7929 3.7204 4.1259 4.4293 2.4638 4.1384 3.1555 3.5598 3.5447 3.9811 3.769 4.2121 4.4755 4.9142 5.0283 4 3.8078 3.4084 3.1758 3.0746 3.2269 3.0246 3.9914 2.2613 2.006 2.0864 2.8253 3.7626 2.6376 2.1632 2.2935 2.4 2.4 2.4 2.4 2.4 1.8073 2.0058 1.4364 1.3269 1.5701 2.1033 2.9053 3 3.5305 1.6424 1.1399 2.1325 2.3851 2.9378 3.5646 6.0405 6.921 7.0614 6.0608 5.6496 5.546 5.9502 6 7 5.7533 5.0626 5.0153 5 4.9578 5 5.6471 5.9118 3.4171 3.4 3.334 3 3 3.6397 5.63828 2.6152 2.541 2.5065 3.0282 3.1607 3.2501 6.258186 6.034549 4.1894 3.0895 2.6838 3.2693 3.8136 3.6639 4 4.0946 4.0549 4.2188 4.9815 4.9962 6.4341 4.2683 4.6868 4.6827 5 4.6928 4.4805 4.0312 4.0882 4.0514 4.0723 4.3593 4.1687 3.7362 3.2998 3 3.352 3.5934 3.4669 3.7549 3.7193 3.6909 3.3104 3.8131 4.2848 5 6.3672 6.5166 6.8565 7.0596 7.3072 6.4078 5.9474 5.3943 5.898 5.0505 5 5 4.4459 3.8064 3.996 4.2181 4.396 4.1165 3.9376 3.7932 3.6907 3.7126 3.3247 3.9072 3.7526 3.9057 3.7412 3.0569 3.3899 3.7566 4 4.0771 4.4986 4.6305 4.484 4.2049 4 4.1899 4.2939 4.8628 4.916 4.6697 4.3244 4.2893 3.9754 3.9269 3.7732 3.5372 3.5159 3.4507 3.4 2.7714 3.2951 3.001 2.8218 2.9275 2.7472 2.499 2.6475 2.5092 2.3039 2.2707 2.5559 2.5 2.3284 2.2 2.208 2.193 2.1278 2.3976 2.8288 3.2181 2.8894 3.9594 2.8542 2.3975 1.8966 1.7012 1.9582 2.062 3.2854 2.8986 2.6226 2.2426 2.5506 2.7145 2.9281 3 3.0156 4.0463 3.9937 3.9863 3.8474 2.9032 2.6955 2.6607 2.8305 9.467 3.5461 2.9387 2.8651 2.5433 3.1362 4.0115 4.5134 4.2921 4.1867 4 3.8424 3.6016 3.6748 3.9905 4.168 4.1185 4.3065 4.3442 4.5625 5.0284 5.0501 4.5862 5.1541 5.2527 5.0859 4.7822 5.3197 5.1108 5.1423 5.0017 5.2417 5.2933 5.2737 -999
-999 -999 -999 -999 -999 -999 -999 -999 8.8693 8.2377 -999 -999 7.2639 7 6.7698 6.8543 6.451 6.4654 6.0052 6.3589 6.1814 6.0498 6.3161 5.9114 5.127 5.6214 5.4815 5.3397 5.1218 5.3103 5.3595 4.8901 4.4517 4.5196 6.0079 6.2999 6.3534 4.9949 4.6717 6.0811 6.2 6.3393 7.888 8.3788 5.6156 5.1363 6.2853 3.7732 3.6365 3.2144 4 4.037 4.3898 3.9811 4.2097 5.1142 5.5265 4.3108 4.0327 4.2196 3.6129 4.0926 4.4601 4.7898 4.7447 3.6341 3.8832 4.2852 5.024 5 4 4.1791 4.0942 3.5744 3.3541 4.0577 3.9885 4.44 5 5.338 5.2561 4.8679 4.0688 3.9155 3.6562 3.6 3.6139 3.3776 3.8844 2.5423 2.0317 2.4646 2.9272 3 2.6682 2.4829 2.4293 2.4 2.5631 2.5355 2.4 2.4269 2.1556 2.0167 1.4072 1.536 1.8273 2.6149 3 3.6498 4 2.0021 1.3347 2.8759 2.8975 3.1823 3.343 4.9861 6.4218 6.9043 6 5.6958 5.4375 6.6603 7 6.7645 5.337 5 5.0398 5.0627 5 7 5.6733 5.3366 3.9061 3.5509 3.6 3.0717 2.8336 3.5903 5.964124 5.654263 2.3686 2.6503 3.0234 3.044 6.018445 6 6.018816 3.4724 3.0827 3 4 4.0679 4 4.8163 5 4.3298 4.4001 5 5 6.5368 5.4858 4.0182 4.1088 5.0669 5.034 4.7539 4.5223 4.2636 3.7534 3.6765 3.7455 3.6795 3.6369 4.0685 3 3.5307 3.5305 3.5201 3.6974 4 3.7379 3.1991 3.6195 4.4277 5.5277 6 6.0503 6.7829 7.046 7.0141 6.4584 6.7416 6.2302 6.4195 6 5 5.5915 4.9576 3.9394 4.2204 4.3976 4.4271 4.1462 3.9652 4.2159 4 4.0776 4 4 4.1032 4.3549 3.6556 3.9541 3.8788 4.1452 4.1589 4.426 4.8573 4.6422 4.5878 4.3812 4.0896 4.5291 4.0471 4.5632 5 4.9081 4.2486 4.1543 4.3273 5 4.1114 3.9758 3.7892 3.5031 2.334 3.3861 3.627 3.2077 3.1885 2.3601 2.7307 2.4914 2.6917 2.8523 2.8481 2.2315 2.5197 2.6487 2.7152 2.3844 2.3597 2.6198 2.4447 2.5066 2.9707 3.3973 3.1245 4.4462 2.8648 2.7795 2.6908 2 2.014 2 3.105 2.5383 2.4982 2.6266 2.7631 2.4229 3.2062 3.3407 3.4543 4 4.078 3.998 3.5261 2.5555 2.5767 2.8442 3.2491 4.5431 3.4095 2.9376 3.0776 3.1376 3.9234 4.5997 4.8625 4.4356 4.4968 4.0154 4.0654 4.0273 4 4 4.088 4 4.1545 4.4043 4.7964 5.0326 5.0719 4.1057 5.2061 5.2865 5.0883 4.7873 23.5763 35.7574 5.2 5.2004 5.2 5.2023 5.2 -999
-999 -999 -999 -999 -999 -999 -999 -999 -999 -999 -999 -999 -999 -999 6.6688 6.6335 6.2474 6.0707 6.8157 7.0277 6.4252 6.4665 6.0223 4.2988 3.9161 3.788 4.9705 5.3511 5.2512 5.4539 5.411 5.5086 5.3279 4.8182 6 6.941 6.2362 5.0384 5.2588 6.1579 6.1922 6.3187 7.9191 6 5.6418 5.8148 3.8242 4.4772 3.914 3.6058 6.1846 5.5928 4 3.836 3.5121 3.9774 6 4.5775 3.9902 3.1572 3.4962 3.807 4.6463 2.8944 2.5338 4.1467 3.6406 4.4931 5.0765 4.9473 3.4048 4.207 4.0923 4.1379 3.8703 4 4.1922 4.6895 5.0033 5.7355 6.0086 4.8554 4.3961 4.3042 4.2494 4.2367 4 3.9299 3.9873 2.812 2 2.769 3 3.0779 2.9109 2.6116 2.8195 2.6411 3 3.0527 2.9561 2.207 2.4833 2.1324 1.2805 1.6118 2.2638 2.5655 3.0881 3.8748 4.2029 2.7023 2.2001 2.465 2.85 3.2759 3.3879 4.407 5.2659 7.0576 7.0973 6.2709 6 8 8 6 5 5.0202 5.1276 5.0544 5.1142 7 6.8266 5.4593 5.2908 3.7338 3.2898 3.0239 3.1629 3.5944 2.3529 5.342043 2.9099 2.9429 3.1462 3.1389 6.04481 3.113 4.4191 3 2.9279 3 3.7177 4 4.4873 4.3132 4.9502 4.3837 4.383 4.612 4.4952 5 4.8881 4.5535 4.3261 5.438 5.3635 5.1321 4.8869 4.1637 4.1615 3.3665 4.8338 4.6676 4.1018 4 4.8439 3.9284 3.8455 3.4807 3.9257 4 3.5171 3.1767 3.2969 3.6716 5.383 6 6.0775 7.154 7.0716 7.2712 6.6775 6.772 6.1037 6.3483 5.9101 4.9292 5.0544 5 4.1089 4.4647 4.5913 4.4374 4.2177 4.3127 4.4083 4.0253 4.3571 4.1467 4 4.1965 4.5631 3.4013 4.0645 4.0737 4.288 4.4 4.6446 4.9159 4.9726 4.6933 4.2991 4.7188 4.7089 4.1612 4.4066 5.038 5.0834 4.7705 4.8073 4.567 5.2921 4.2857 4.1546 4 3.4267 6.0607 3.9902 4.2263 3.7167 3 3 3 3 2.9671 2.9503 2.9608 2.8831 3.0184 2.8752 2.7903 2.8059 2.8653 2.7425 3.7138 2.5104 2.9735 2.9089 3 4.47 2.9867 2.6575 2.5122 2.267 2.2664 2.5262 3.4658 2.1207 2.2776 2.2238 2.3092 2.0856 5.2283 3.9827 3.0002 3.9594 4.1 3.8181 3.521 3.7379 3.2604 3.5232 4.1188 4.7422 5 3.8182 3.6886 3.9186 4.8198 4.9318 4.3669 4.1681 4.0814 4 3.9769 3.645 3.9488 4 3.9443 4.0664 4.2342 4.8138 5 5.1149 5.4767 5.5534 5.4455 5.551 5.3888 4.9032 5.5917 5.2107 5.169 5.2952 5.2 5.0583 4.8174 -999
-999 -999 -999 -999 -999 -999 -999 -999 -999 -999 -999 -999 -999 -999 -999 -999 -999 -999 8.1477 6.9847 6.5267 6.907 5.879 4.0832 3.9354 3.7537 5.4856 5.4258 5.067 5.5896 5.2405 5.0391 4.7614 6.0825 6.5923 7 6.1274 6.1553 6.3245 6.5061 6.2659 6.0618 8.1364 6.0991 5.6481 6 3.6897 5 3.8816 4 7.178 4 4.4743 3.7901 3.7853 4.7624 5.0098 4.3688 3.8959 3.9769 3.475 3.7525 4.2366 4.1536 4.9548 3.3817 3.3467 3.9084 5.1408 4.3739 4.0346 4 4.0504 4.6582 4.1608 4.0086 4.3803 5.0354 5.176 6.4294 6.1123 5.5226 5.0733 5 5.1829 4.5201 4.421 4.38 5.2477 2.9368 2 2.9024 3.2352 3.4366 3.0899 2.7922 3.0616 2.6988 3.5342 3.809 2.427 2.4 2.3265 2.0884 1.1635 2.1049 2.3295 2.5599 2.9347 3.5307 4 2.9284 2.2176 2.4976 2.9299 3.1698 3.3484 3.7413 5.0783 5.4409 7.3096 6.6918 6.6114 8.0503 7.4863 6 5.0986 5.0749 5.0134 5.0653 5.1616 7 6.4054 5.0942 5.4287 7 7.5 3.4538 3.2151 3.6321 2.7281 5.6172 3.142 3.264 3.4196 6.743715 6.531858 5.6258 2.9898 3.1797 3.0964 3.5002 4.2011 4.2795 4 4.1437 4.5496 4.281 4.162 4.5154 4.6168 4.7168 5.2567 4.7989 4.4738 4.9578 5.2205 5.4515 5 4.4778 4.3715 4.1185 4.8826 4.6021 4.052 4.2124 4.6887 4.0411 3.9148 3.6774 3.0499 4 3.1849 3.0612 3.446 3.9552 5.9277 6.07 6.0963 6.8263 7.4989 7.5978 7.117 6.9616 7.5359 5.5103 4.8853 4.2948 4.4105 4.1326 4.332 4.6823 5 4.6324 4.4665 4.6324 4.3018 3.9097 4.1228 4.3295 4.0883 4.1469 4.0653 4 5 4.0035 4.1866 4.4588 4.5087 4.6308 4.5512 4.7032 5 5 4.9728 4.9739 4.4486 4.475 4.3944 4.334 4.2969 4.9211 5.0872 5.0136 4.1233 4.1761 3.9844 4 4 4.0162 4.2453 3.4695 3.2034 3.3313 3.5306 3.3898 3.1674 3 3.1151 3.6417 2.8919 3.1912 2.8506 3.1036 2.9975 3.5386 2.4556 2.9896 2.9933 2.9889 4.47 5 2.4785 2.533 2.5026 2.2951 3 3.5799 2.1269 2.3222 2.2812 2.5393 8.0925 4.1373 4.3385 3.9096 3.9938 4.6083 3.3917 3 4.0485 5.7511 5 5.5435 6.7288 5 3.921 4.2478 4.9951 5 5.0348 4.8536 4.1 4.1721 4.0765 4.2114 4.1568 4.0527 4 4.0917 4.2519 5.0471 4.8531 5.0494 5.3052 5.302 7.3674 5.6888 5.8262 5.8891 5.9065 5.6843 5.336 5.0664 4.1323 5.0787 5 4.7806 -999
-999 -999 -999 -999 -999 -999 -999 -999 -999 -999 -999 -999 -999 -999 -999 -999 -999 -999 -999 -999 7.2282 7.1202 5.4765 4.2436 4.1198 4.4262 4.9355 5.1321 5.0612 5.8826 6 5.4823 5.0522 7.0627 6.9562 6.4163 6.2437 7.2819 6.5905 6.2331 6.132 6.493 6.3114 6.7992 4.6895 3.7983 4.1566 7 3.9249 4 6.7547 4.8954 4.198 4.4522 5.2267 5 4.193 3.4152 3.5803 3.9348 3.0438 3.9338 4.7053 5.0315 5.0051 3.3006 3.2146 4.5153 5.5708 4.5867 4.241 4.2619 4.0105 4.5158 4.329 4.0637 4.6629 5.8925 5.9413 6.9292 6.5967 6.1694 5.6341 5.7041 5.952 4.9755 4.9274 5.8093 6.216 3.6528 2.6236 3.6193 3.6057 3.6091 3.665 3.4037 3.5157 2.8998 3.4974 3.4746 3.1602 2.6415 2.6671 2.1867 1.5137 2.2118 2.286 2.5629 2.771 2.9405 3.4676 2.9832 2.6307 2.5055 2.8068 2.8087 3.1252 3.5905 4 6.1897 7.6506 7.7955 7.2826 8 8 5.8719 5.3096 5.2168 5.0381 5.3387 6.2145 7 6.1304 5.5826 5 5.9876 7.5 3.7287 3.2828 3.2104 3.666 5.397189 3 4 3.8942 7 3.5456 5.5645 3.3001 3.5062 3.472 3.7368 4.4019 4.1339 4.0146 4.2502 4.3014 4.3181 4.2364 4.3379 8.5646 4.4917 5.0336 5.5727 4.7549 5.1171 6.2936 6.0166 5.0471 5.0059 4.6634 4.5324 4.8404 5 4.2114 4.0399 4.4572 4.1598 3.5918 3.3459 3.1406 3.2533 3.2256 3.042 3.138 4.9076 6.574 6.4033 6.0051 6.7927 7.5867 7.8245 7.0288 6.9991 8.1535 5.3384 4.3358 4.3364 4.0264 4.126 4.2207 4.7582 5.1625 5.1283 4.812 4.6158 4.1701 4.1791 4.5179 4.6339 4.0853 4.3381 4.3161 4.0248 4.4787 4.4096 4.2709 4.1293 4.0025 4.344 4.5595 4.2437 5.3068 5.2279 4.9486 4 4.2674 4.1321 4.0398 3.989 4.1336 4.5815 5 5.4648 4.9531 4.6382 4.5751 4.1999 4.3517 4.4307 4.4376 3.691 3.6906 3.7637 3.7226 3.8053 3.7592 4.1298 3.8577 3.2461 3.0636 3.511 3.2901 3.0364 2.9756 3.1125 3 2.9488 2.8769 3.0913 3.3624 4.47 2.5316 2.657 2.7102 3.185 2.3308 3.5907 2.1925 2.3414 2.351 12.2638 16.1963 2.9886 21.2536 21.0061 4.4513 4.2541 3.8029 3.7573 4.0242 3.8553 5.0579 5.9797 6 4.838 4.089 4.8671 5.3109 5.8488 5.1419 4.6922 4.1245 4.147 4.3031 4.3989 4.43 6.4857 4.4825 4.5424 4.978 5.1965 5.2712 5.6169 5.7428 5.5449 6.4636 6.0334 6.0866 6.1805 6.2701 4.6648 5.5187 5.0387 5.1 5.1 5.0637 4.7403 -999
-999 -999 -999 -999 -999 -999 -999 -999 -999 -999 -999 -999 -999 -999 -999 -999 -999 -999 -999 -999 -999 -999 -999 4.7117 5.0181 5.3246 5.631 5.8422 5.1555 5.3048 5.4503 5.2873 5.0085 7.4995 9.0422 6.9934 7.3526 7 6.3891 6.0122 7.7021 6.1164 5.5941 6.395 3.9925 3.9102 4.9742 5.8596 3.9646 3.9763 7.1795 4.3776 4.5036 5.1879 5.3448 5 5 3.7173 3.8575 4 3.6815 4.4533 4.6853 4.9922 4.8815 3.0896 4.6958 4.7397 5.0794 5.2885 4.4682 4.0587 4.2863 4.4171 4.3535 4.257 5.6774 6 7 7.5183 7.8777 8 7.4907 8.2234 6.7869 5.6945 5.6994 6 7 6.1804 2.8485 3.2452 3.7612 3.6036 3.3943 3.3673 3.5791 3.5778 3.389 3.5 3.5 3.566 2.9618 2.233 2.1618 2.1891 2.2872 2.4253 2.5641 2.692 2.6094 2.8788 3.3746 4.2675 3.6985 3.3398 3.5059 3.3476 3.837 4.4485 7 13.0367 8 8.2036 8.0312 5.4292 5.795 5.5269 6.3269 6.0705 6.6182 6.0533 5.1842 5.1161 5.4153 5.6 5.2986 7.5 3.3913 3.2575 3.6426 5.5 5.920502 4.0186 6.960369 6.980881 4.5395 3.1698 3.2583 3.591 3.9785 4 4.1309 3.9147 4 4 4.0043 4.0218 4.0519 4.0433 4.9068 4.5882 5.0732 5.3581 5.5659 5.8297 4.526 5 5.0992 5.1207 4.8503 4.8112 5 5.7196 5.0949 4.3115 4.1782 4.0004 3.5125 2.1055 0.4968 0.4416 3.0973 2.6298 3.2785 3.8443 4.8689 5.9614 6.2315 7.2556 7.3215 7.4858 6.8746 6.9368 8.2127 7.0173 4.929 4.1801 4.4598 4.0608 4.3319 5.0103 5.051 4.9506 4.851 4.1887 4.3234 4.3581 4.63 4.6679 4.0122 4.6207 4.4832 4.0142 4.6267 4.4555 4.6511 4.6383 4.8332 5 4.4943 5.1932 5.592 5.684 4.3781 3.9129 3.6767 4.8094 4.0395 4.0092 4.1 4.3172 4.5899 5.1765 4.5005 4.5439 4.3474 4.5885 4.9116 4 3.9369 3.8419 3.959 4.3766 4.5349 4.5493 4.5543 4.1799 4.0499 3.7767 2.9775 3.4865 3.3086 3.2288 3 3.7875 3 3.1264 3.2015 2.7242 4.47 4.47 2.727 2.8895 3.0576 3.436 3.2576 3.3322 2 2.9908 2.4298 18.9656 13.7398 3.2063 23.1265 46.6002 31.8607 4.2983 3.4576 4.2342 4.1531 3.0843 4.8431 5.4965 7 5.1647 4.9551 5 5.2632 6.0139 4.9178 4.276 4.2621 4.3038 4.2389 4.5276 4.5951 4.6704 4.7097 5.0703 5.2909 5.4303 5.8877 6 5.9705 6 6.0903 6.2556 6.2023 6.2901 6.2059 6.0938 4.4325 5.3734 5.2566 5.1 5.2969 5.0213 -999
-999 -999 -999 -999 -999 -999 -999 -999 -999 -999 -999 -999 -999 -999 -999 -999 -999 -999 -999 -999 -999 -999 -999 -999 -999 -999 5.96 6.0484 5.6843 5.933 6 5.4697 5 8 8 6.4492 6.9202 6.905 6.2047 8.1633 7.7106 5.693 5.2089 4.3793 4.5485 5.1179 4.9971 4.7739 3.8979 3.9303 5.1817 3.7756 3.8596 5.2997 4.4174 5 4.9493 4 3.9771 4 3.7707 4.4394 4.4558 4.3506 4.5403 3.8145 3.8142 4.5908 4.7227 4.9321 4.7318 3.2191 4.3924 4.3261 4.5836 4.0565 5.2722 6.038 6.9635 7.1357 7.6684 7.6024 7.9271 8.235 8.0161 7.2504 6.2146 7.1914 8.1293 5 2.9683 3.6219 4.0436 4 5.748 3.5165 3.5 3.746 3.5743 3.5354 3.5 3.4859 2.8071 2.0859 2.1753 2.2142 2.2899 2.3722 2.4879 2.5777 1.929 1.6045 2.5341 3.9217 5.7634 5.1658 4.0881 3.8185 4.1148 4.2282 5.8417 7.4061 8.0739 8.2423 5 5 6.9354 7 7.0586 6 5.3 5.2469 5.3947 5.2602 5.3847 5.3793 5.741 7.5 3.3 3.4029 3.6437 2.5965 5.69361 6 6.418737 3.7556 5.4278 3.1428 3.5536 3.8428 4 3.9173 3.5856 4.1459 4.3315 3.9741 4.3452 4.1545 4.1227 4.1759 4.4663 8.6964 5 5.3606 5.9557 6 5.6949 5.3504 5.1999 5.0156 4.8383 4.9851 5.1624 5.5198 5.2909 4.6453 4.1693 4.4957 3.639 3.4739 3.1917 1.1663 0 2.7468 3.1321 3.4994 4.3338 5.1773 6 7 7.436 7.5582 6.9938 7.0348 7.6229 8.2379 6.6743 4.3371 4.2211 4.3234 4.2105 4.8074 4.9615 4.9025 4.551 4.0567 4.7242 4.5085 4.4172 4.5893 3 4.7191 4.3594 4.0612 5.0107 4.5578 4.7518 4.7334 4.3865 5.2183 5.262 4.375 5.2051 5.4303 3.9883 3.6804 3.3165 4.0103 3.8106 3.7268 3.9368 4.1221 4.2378 4.2467 4.2542 4.2272 4.0588 4.3129 4.3081 5.1415 4 4.8572 4.9322 4.9874 5.4145 4.8583 4.5885 4.4039 4.0046 3.9064 4 3.7786 3.3261 3.2689 2.9239 3.2443 2.9623 3.5144 4 3.4669 3.4675 4.47 3 2.9784 2.9853 3.3106 3.099 2.2823 2.8797 2.1834 2.3516 2.9408 3 3 38.8403 27.1894 10.3791 4.4759 4.1721 4.0471 4.1625 5.0162 4.732 5.3711 7 5.9456 5 5.775 6.2243 6.0589 4.9287 4.7393 4.3108 5.4004 4.3911 4.6966 5.065 5.0796 47.1109 10.1792 5.9054 6.02 6.0076 6.0089 6 6.2635 6.418 6.1238 6.2964 6.3134 6.2958 6.332 6.0261 5.3304 5.7856 5.4417 5.1377 5.1406 -999
-999 -999 -999 -999 -999 -999 -999 -999 -999 -999 -999 -999 -999 -999 -999 -999 -999 -999 -999 -999 -999 -999 -999 -999 -999 -999 -999 -999 5.9928 6 6 5.5924 5 8 6.4995 6.7374 6.819 6.6215 6.4783 6.5152 6.1514 5.3776 4.7211 4.5898 3.8018 5.5497 5.2792 5.8386 4.6211 4.1505 6.8482 4.4954 10.8584 4.0815 4.3247 8.4344 6.7036 4 4.0567 3.7636 4.2674 4.6994 4.0591 4.3744 4.406 4.5241 4 4.9 4.6934 4.5944 4.7772 5.0049 5.3031 5.3264 5.7935 5.6494 5 6.2516 6.7458 6.476 6.3826 6.7404 7.6657 8.283 8.3565 7.5985 6.6346 7.6053 9.8892 9.4078 4.8604 3.7322 4.9116 4.083 8.2121 4.0789 3.648 4.6405 3.767 3.7456 3.5494 3.4242 2.6571 2.5032 2 2.2266 2.3338 2.4382 2.5733 2.4857 2.1003 0.6321 2.1818 4.2613 5.4498 5.9661 5.7032 5 3.7575 4.8796 5.0409 5.6142 8.0255 8.0245 4.9023 5.3321 8.1454 6.6842 6.1023 6.1358 5.7167 5.6607 5.3427 5.0804 5.4753 5.404 5.3331 7.5 7.5 3.5255 4.0738 2.6087 2.4554 2.7912 3 5.0465 3.3275 3.8292 3.3216 2.9896 3.2542 2.9622 3.3364 3.7126 3.7832 3.9709 4.0205 4 3.9244 4 4.2954 5 5.0065 5.3686 5.6828 5.6723 5.9008 5.621 5.391 5.1774 5.0392 5.2104 5.159 5.3138 5.455 4.5898 4.0524 4.4859 3.8525 3.4202 3.4515 3.4779 3.3148 3.0045 3.4143 3.7423 4.2482 6 6.3525 6.6989 7.2136 7.4678 7.2364 7.4268 7.6297 7.8994 7.794 4.7935 4.3311 4.4919 4.1819 4.4663 5.366 5.1616 4.6628 4.3503 4.6505 4.6304 4.1599 4.2816 3.132 4.1914 4.1239 4.5279 4.5401 4.6456 4.851 4.8452 4.9284 5 4.3827 4.6501 5.5123 5.3977 3.9034 3.5671 3.1407 4 3.4299 3.5767 3.7402 4.1547 4.3466 4.4919 4.3008 4.2496 4.5538 5.0153 4.7309 4.4266 4.4847 4.2558 4.9206 5.035 5.2916 4.9295 4.4525 4.6794 6.3651 5 4.5096 4 3.4244 2.9666 3.243 3.8266 3.8019 3.4027 3.3685 4.1504 4.8907 3 3 4 3.7985 3.3968 3.2645 2.1965 3.2981 2.5945 2.6248 3.1446 3.0382 3 4.4733 19.4437 16.3201 5 5.0428 4.9371 5.0636 5.1047 5.2156 5.4508 7 5.8561 5.4389 6.0476 6.0333 5.8572 5.1494 5.0116 4.2348 5.8288 4.5239 5.0521 5.3221 5.4975 8.9521 6.0017 6.7652 6.3048 4.7334 6.1234 6 6.4933 6.203 5.5259 6.7086 6.3115 6.4514 6.5384 6.3485 5.3173 5.5781 5.6527 5.3918 5.321 -999
-999 -999 -999 -999 -999 -999 -999 -999 -999 -999 -999 -999 -999 -999 -999 -999 -999 -999 -999 -999 -999 -999 -999 -999 -999 -999 -999 -999 -999 -999 -999 5.4905 5.4185 5.9494 6.1794 6.253 6.4886 6.4907 6.559 6.4763 6.9163 5.7702 5.2952 4.3639 4.8748 5.6279 5.5749 5 5.8818 5.9492 7.0071 3.9839 4.0175 6 4.2016 4.8139 4.9616 4 4.0433 4.0096 4 4 4.1465 4.4672 4.4171 4.4 4.2347 4.1257 4.1257 4.6412 4.7161 5.2085 5.5945 5.796 5.8966 5.6361 5.7971 5.568 6.5658 6.0619 7.095 7.5784 8.2467 8.6349 8.775 8.5724 8 8.1774 9.8382 9.7224 7.8844 6.9086 6.5307 4 3.7195 3.6482 3.7 4 3.7593 3.7902 3.7346 3.2917 3.3783 2.765 2.4106 2.2207 2.3945 2.5595 2.6421 2.6308 2.3711 0.8339 1.3522 3 5.6597 5.4315 6.0983 4.9895 3.568 5.2797 4 4.3793 8.6924 10.0179 4.5739 6.6086 8.7669 8.0035 6.4161 5.5127 5.4373 5.4707 5.2216 5 5.668 5.5587 5.2762 5.5789 7.5 3.5243 3.1585 4.6124 4.7814 3.46 3.46 5.2686 3.3535 3.0964 3.3305 4.0571 3.6853 3.0634 3.1914 3.9515 4.1146 4.2084 4.3166 4.1456 4.0975 4.3383 4.8688 8.9128 5.0355 5.8473 6.8872 7 5.4354 6.1233 5.5915 5.4669 5.1305 5.1922 5.4802 5.6322 5.0976 4.6945 4.1072 3.9368 3.981 4.0647 3.4248 3.4279 3.6545 3 3.7897 3.9638 5 5.9339 6.1893 6.8415 7.4439 7.376 7.4735 7.235 7.3782 7.5756 7.9775 7.0756 4.4844 4.5967 4.1776 4.057 4.4457 5.3608 5 4.9591 4.9178 5.0929 4.3537 4.2964 4.0156 4.4309 4.1 4.1387 4.6336 4.6601 4.5774 4.9637 5.2223 5.1065 3.7559 4.7785 5.6342 4.8554 3.7684 3.5648 3.7686 3.2909 3.2837 4.4897 5.0963 4.7585 4.869 5.1093 5.2149 5.0034 4.9333 4.9425 4.955 4.7491 4.2667 4.7087 4.7714 5.6338 5.5616 5.1418 5.0321 5 5.2662 5 4.1204 4.8968 5.0566 4.8916 4.3073 4.0032 4.4 3.5787 3.2615 4.2426 4.067 4.47 3.3647 3 3.938 3.4303 2.9641 2.803 3.3829 2.9663 2.9302 3.2381 17.9812 3.3711 3.7303 21.2941 11.8717 5 5.4924 5.4182 5.4622 5.7554 5.9701 5.6367 8 6.0092 5.891 6.2652 6.1248 6 5.9537 5.1153 5.0228 5.0708 5.2474 5.7146 6.0664 6.0747 6.4226 6.3627 6.0824 6.4333 5.9333 6.2076 7.0335 6.8931 6.4111 6.1426 6.3044 6.3782 6.6005 6.6501 6.4498 6.1771 5.28 6.1383 5.8631 5.6641 -999
-999 -999 -999 -999 -999 -999 -999 -999 -999 -999 -999 -999 -999 -999 -999 -999 -999 -999 -999 -999 -999 -999 -999 -999 -999 -999 -999 -999 -999 -999 -999 -999 -999 -999 6.1225 6.174 6.4565 6.9059 6.959 7 7.2543 5.5575 4.6921 4.8295 4.7318 5.7624 7.082 5.4225 5.9555 6.4006 8.0303 3.9476 3.9 4.833 5.9643 5.3558 4.5922 4.4995 4.6 4.4687 3.7597 4.0085 4.0179 4.5478 4.5645 4.2446 3.8329 4.202 4.4335 4.6809 4.7323 5.0282 5.5025 5.4912 5.2945 5.5829 5.7604 5.8188 5.2303 6.5335 7.7587 8.5049 8.666 8.4034 8.0603 7.7193 8.2959 8.6993 9.8837 9.5676 10 8.4202 5.845 4.0571 3.8608 3.7811 3.6811 3.5485 3.8471 3.6796 3.6169 3.2497 3.4732 2.9183 2.9577 2.9233 2.2671 2.3733 2.6232 2.5584 2.1169 0.8987 1.1551 1.5023 3.4775 5.0946 5.4288 3.6826 4 3.9207 4.2643 7.5419 9.3712 7.9214 5 6.3171 9.127 9.3021 9.0914 6.9955 5.4606 5.2493 6.628 5.8648 5.2026 5.2884 5 5.4956 7.5 3.3164 3.151 2.7201 5.1633 4.7675 2.4594 3.9489 4.4024 4.6877 4.5995 3 3 3 3.1121 3.2053 3.6304 3.7717 4.0076 4.127 4.0577 5.1272 5.395 10.8508 8.5543 6 6.2975 6.8819 6.3436 6 6 5.8406 5.7437 5.8292 5.8518 5.9022 5.1175 4.5894 4.655 3.6811 3.5473 4.5648 3.5398 4 4.1467 3 4 4.6276 5.8702 5.9453 6.2668 6.8124 7.5014 7.3139 7.2385 7.356 7.4606 7.7205 8.2727 8.3458 6.7155 4.4654 4.4907 4.2626 4.1201 5.4489 5.4619 5 5.2026 5.513 5.0744 4.8084 4.1113 4.8276 4.2972 4.4902 4.9909 4.8134 4.4049 5.1031 5.7254 5.0538 4 4.6198 5.575 4.731 3.6898 3.5686 4.1724 6 6.1085 6.4222 6.6467 6.0919 5.3558 5.9131 6.4978 4 4.639 5.2122 5.1161 5.0668 4.8282 4.8153 4.917 5.6 5.5023 5.7184 6 6.6346 6 5.1758 5.1874 6 5.441 5 4.8745 4.0557 4.1893 3.9513 3.6614 3.5382 3.1117 4.47 4.2076 3.6613 3.3612 2.7597 2.2552 3.407 3.3765 2.8692 2.9106 2.9532 3.0235 3.5174 3.9593 21.5968 5.0893 5.1913 5.9327 5.9973 6.0911 6.1186 6.4088 6 9 6.1149 5.7214 5.8208 6.1156 6.3119 6.3723 6.5431 5.8407 4.9149 5.7484 5.9956 6.2415 6.6742 6.735 6.8309 7.0075 7.0569 6.6241 6.6996 7.5304 7.7968 7.0218 6.9572 6.5799 6.5246 6.6198 6.6139 6.6349 6.6553 6.0332 6.0961 5.9327 5.8118 -999
-999 -999 -999 -999 -999 -999 -999 -999 -999 -999 -999 -999 -999 -999 -999 -999 -999 -999 -999 -999 -999 -999 -999 -999 -999 -999 -999 -999 -999 -999 -999 -999 -999 -999 -999 -999 7.0104 7.2842 7.5665 7.4049 7.2933 5 4.6758 3.3639 4.7935 6.236 8.5015 5.8967 5 5.4251 7.9898 3.9675 3.9 4.393 7 7.4818 4.956 4.2414 4.0976 4.2262 4 4.5782 4.6033 4.7 4.721 4.7183 5.1192 4.7201 4.7946 4.8777 4.7944 5.0053 5.2085 5.7 5.1952 5.4055 5.6883 5.9775 5.1482 5.033 8.1395 8.8028 8.4444 8.5037 6.7498 6.6416 7.2638 6.9143 7.0925 10 10.1688 7.8057 7.6488 6.1696 5.8121 3.8536 3.7338 3.6869 3.754 3.7875 3.4671 3.4329 4.0194 4.0965 3.1558 2.5457 2.3533 2.2449 2.5762 2.3748 2.1942 0.3141 1.1837 1.3667 2.6425 5.411 3.8254 3.9125 3.9653 4.0683 5.4184 9 8.0485 7.1863 5.0907 5.6219 7.9469 9.7958 10 8.7371 7.8641 6.9649 7.7353 6.0614 4.8251 4.7675 4.9337 5.2019 7.5 3.523 3.2592 2.9694 2.4226 2.5342 2.7856 2.4802 2.5808 2.7046 2.3228 3.7181 2.726 2.6524 3.213 3.4944 3.914 3.5214 3.6189 3.6216 3.7279 5 5.1466 7.1327 9.2512 5.1203 5.9651 8.0329 6.0151 5.2989 5.9573 6.05 6.2211 6.2191 6.2302 6.1363 5.8188 5 6.0157 3.8968 4 4 4.0479 4.0617 4.0779 3 4.8628 5.0997 5.78 6.2878 6.3749 6.7166 7.2706 7.6454 7.8508 7.712 8.2064 8.0531 8.4071 8.4819 9.3847 7.4706 4.9567 4.8579 5 5.4184 5.7036 5.5857 5.3297 5.7842 5.8789 5.6497 4.3752 5.2662 5.1623 5.3891 5.2042 4.9681 4.904 4.9421 5.8194 6 6.3549 4.9816 5.5049 5.2313 3.8709 3.8288 4.7522 6.8217 7.0964 7.081 7.4566 7 6.9961 7.1588 7.1139 4 5.6357 5.5274 5.1557 5.1373 5.0816 4.9222 5.0683 5.8651 5.8982 6 6.1363 6.4331 5.0448 5.6097 6 6 5.1805 4.7264 5.0881 4.8987 4.2558 4.1955 3.7427 3.8227 4.0109 4.47 4.9837 4.5885 4.3565 4.1807 3.7621 3.9846 4.0105 4 3.0694 3.4793 16.7553 5.6359 37.5908 4 4.7501 5.4439 5.1322 6.6401 6 6.0083 6.0423 5.7605 11 6.1545 6.1004 6 6.1997 6.6374 6.2144 6.3493 6.1093 5.891 6.029 7 7 7 46.027 4.8359 27.5764 9.3016 7.0136 7 11.5338 7.925 7.8494 6.9153 6.8499 6.8914 6.8952 6.9693 20.2287 7.1024 7 6.2435 6.0269 6.0694 -999
-999 -999 -999 -999 -999 -999 -999 -999 -999 -999 -999 -999 -999 -999 -999 -999 -999 -999 -999 -999 -999 -999 -999 -999 -999 -999 -999 -999 -999 -999 -999 -999 -999 -999 -999 -999 -999 -999 -999 7.0967 6.1602 5.1108 5.5811 5.0641 5.1025 7.5399 11.1749 8.499 5.2151 4.4146 5.6673 4.8628 4.9172 5.9832 7.5488 6.3342 4.6819 4.0673 3.3382 3.4426 4.0603 4.6524 4.7319 4.7624 4.7307 4.7 5.0455 5.1619 5.2397 5.3806 5.3748 5.2255 5.209 5.6058 5.8613 6 6.0813 6 6.1575 6.0989 7.1764 7.1618 7.0895 6.9857 6.5583 6.3337 6.2348 6.5887 6.6008 7.5129 8.1401 5.7229 6.407 9.9551 7.3549 5.1455 4.0412 3.981 4.4555 3.5468 3.739 3.8092 3.9452 4.4089 4.8304 3.389 2.7504 2.1581 2.8321 2.902 2.0888 0.9182 1.3485 2.0061 4.2131 5.0485 6 3.4391 4.0843 4.4451 5.481 9 9.797 7.4987 7.0026 7.1404 7.0755 7.3946 10 9.3106 9.6102 9.1584 9.13 7.527 4.9408 4.5431 4.9856 5.1031 7.5 3.4276 3.602 2.9296 3 3.0649 4.7623 3 3.4576 3.8569 2.9835 2.3328 3.3094 2.3251 3.7583 3.8704 3.628 3.2939 3.2694 3.5002 3.4003 4.5873 4.7172 4.9323 4.8175 5.0925 6.1276 8.1079 5.7213 5.9942 6.2143 6.0488 6.1317 6.1318 6.3902 6.247 6.1624 5.6956 5.0273 3.9482 4.1826 4.4361 4 4.7775 4.2591 5 5.7548 5.5407 5.5829 6.1303 6.0365 6.5573 7 7.0885 7.4025 7.5601 8.2298 8.4107 8.5317 8.5871 8.9806 8.9378 7 5.2638 4.8346 4.1651 5.6788 5.5244 5.5847 6 6.1955 6.0844 4.4292 5.6331 6 6.4037 6.0049 5.7965 5.1144 5.4094 7.065 7.7378 7.3932 7.0194 4 4.1832 5.4529 4 4.5516 7.5139 7.1671 6.9859 6.781 6.8415 7.228 5.5178 5.4499 4.7396 5.6217 5.39 5 5.0392 5.0763 5.1383 5.057 5.6394 5.9828 6.3034 6.1494 5.4814 5.2168 5.8403 5.892 5.2747 5.3655 4.8343 5.5939 5.0005 4.3389 3.7734 3.6836 3.8301 4 4.47 4.8953 6 4.8489 3.426 2.527 3.5507 4.0336 3.2776 3.4889 3.4094 3.8546 33.3319 16.0074 4 4 4.7101 6 6 5.8707 5.6 5.6624 5.8818 6.193 6.1878 6.4377 6.3447 6.4853 6.1452 5.8157 5.4503 5.101 6 6.2601 6.802 6.9554 28.3462 7.2318 6.1845 7.1666 7.5541 7.7215 7.7596 7.1599 7.041 7.9504 7.6444 7.1526 7.1866 7.152 7.0909 49.5797 23.4928 7.4162 6.9361 6.3478 -999 -999
-999 -999 -999 -999 -999 -999 -999 -999 -999 -999 -999 -999 -999 -999 -999 -999 -999 -999 -999 -999 -999 -999 -999 -999 -999 -999 -999 -999 -999 -999 -999 -999 -999 -999 -999 -999 -999 -999 -999 -999 -999 -999 -999 5.807 5.627 8.6915 7.7655 5.8009 5.1777 5 5.1 5.1808 4.7954 4.8934 4.5619 4.868 4 3.779 3.2704 2.9926 4.1594 4.4538 4.5443 4.7773 4.8544 4.877 4.5194 5.0853 5.3626 5.2511 5.4623 5.3986 5.3104 5.3699 6.015 5.9914 6.5777 6.4419 6.0139 6.3027 6 5.2699 6.8303 6.7794 6.6499 6.2766 6.0668 6.6409 6.1647 7.012 6.7862 9.3606 6.803 10 8.1962 5.8343 4.559 4.3529 4.4689 3.47 3.9587 3.9631 3.7433 4.2139 3.3867 3.2 3.8081 3.846 2.9333 3.3003 3.3505 1.9861 2.5319 3 4.928 6 5.0073 3.8753 4.2673 4.9836 6.2489 9.3553 8.248 7.2734 6.744 6.8117 7.0309 8.6168 9.9757 9.9358 9.0406 9.2177 9.386 8.8518 6.4307 5.6261 5.526 5.41 7.5 3.7024 3.8644 9.0306 7.3566 6.9953 7 5.0891 4.3775 4.2625 3.2613 2.786 2.6645 4.2242 3.09 3.2969 3.3298 3.2 3.3284 3.4195 3.3697 4.3013 4.2041 4.5702 5.0244 5.4237 7.1078 7.5139 7.5789 5.7979 6.4533 5.92 5.6794 5.8543 6.1662 6.5164 6.5631 6.3652 5.9504 5 5 5 5.5856 4.8018 4.8145 5 5.9502 6.0702 5.7923 5.9373 5.9266 6.2401 6.7112 6.8676 6.9752 6.4591 8.4391 8.2897 8.4365 8.3497 9 9.0114 7 5.3016 5.2001 4 5.5562 5.4765 5.7083 5.968 6 6 5.3195 6.2305 6.8549 7.0512 6.7293 6.2533 6 6.1765 8 8.4629 8.8234 8.6607 7.6743 6.2221 6.5109 7.7863 7.7847 8.2829 7.5047 6.837 6.9529 7.3538 7.8628 7.095 7.0506 4.4814 5.9801 5.5804 5.0055 5.0559 5 5.868 5.0306 4.742 6 6 5.6061 5.1369 4.8097 5.5439 5.3457 5.0507 5.1023 5.0248 4.9464 4.5071 4.1833 3.9696 3.8983 5.2926 3.7625 4.47 3.9574 5.3835 4.5148 4.2111 3.9425 5.701 4.2929 3.5323 3.9673 3.849 4.1299 4.2129 4.0969 3.9863 3.9415 5 6.1385 5.8978 5.5976 5.6949 5.7149 5.9285 8.2446 6.5022 6.6338 6.473 6.4431 6.4756 6.0398 5.9468 5.4869 6.0569 6.2683 6.8448 7.3502 7.8072 8 8 7.4145 4.1163 5.944 7.9979 7.8 8 8 8.0544 7.9211 7.7087 7.628 7.6346 21.8565 14.475 7.3813 7.2149 6.2447 -999 -999
-999 -999 -999 -999 -999 -999 -999 -999 -999 -999 -999 -999 -999 -999 -999 -999 -999 -999 -999 -999 -999 -999 -999 -999 -999 -999 -999 -999 -999 -999 -999 -999 -999 -999 -999 -999 -999 -999 -999 -999 5.6433 7.1797 7.0277 7.0788 6.8866 7.3251 4.9262 5.1872 3.8679 6 4.8871 4.6309 4.1126 3.9481 3.8238 3.7152 3.9024 3.7077 3.6036 3.4236 4.1342 4.5098 4.3888 4.5534 4.7205 4.6698 5 5.0482 5.3016 5.4068 5.5706 5.0358 5.4172 5.9533 6.0791 6.2101 6.3726 6.3786 6.1001 6.5013 6.0497 6 5.23 8.2574 6.7903 6.0807 5.9346 6.4435 6.2138 6.494 6.3532 7.9562 10 10 9.2826 6.1283 5.7641 5.1977 4.3167 4 4.0047 4.0756 4.1803 3.9364 3.9841 3.9404 3.3092 3.846 3.1062 4 4.1127 3.8147 2.0224 2.0227 4.6387 5.8598 5.8668 4.1585 4.0836 5.3368 6.3717 9.0826 8.3256 8 8.5056 6 6.2197 8.4041 10.1361 8.7488 6.9879 7.4312 8.463 7.2265 6.3764 6.471 6.3383 5.3888 7.5 3.9347 6.2284 9.0011 8.1682 7.748 7.082 4.7989 4.7655 4.0482 3.8873 4 4.5857 4.4552 3.1657 3.0109 2.8662 3.0427 3.2311 3.4961 3.3618 3.9208 4.1248 4.819 5.2921 5.5454 5.7291 6 7.2897 7.3689 6.0282 5.5984 5.9727 5.1812 6.1766 6.4254 6.9028 6.5186 6.4435 6.1599 5.7498 4.943 5.6106 4.8321 5.3657 4 4.6495 4.9968 6.9581 5.2333 5.2776 5.9899 6.0796 6.2755 6.6977 6.8465 6.8971 8 8.5961 8.5941 8.9736 8.8915 7 5.7768 5.2269 5.0427 5.3663 5.3811 5.4672 5.8144 6 6.1404 5.3273 6.1967 7.1767 7.3173 7.192 6.345 6.9351 8 8 9.1231 10 9.8648 9 7.7406 7.8666 8.2763 8.1871 8.4314 8.4358 7.353 7.5619 7.6816 7.1481 6.4439 6.287 5.4668 5.7711 5.6659 5.4552 5 5 5.0617 5.192 6.5621 6.0981 6 5.9023 5.6999 5.2632 5.3656 5.1648 4.9935 4.7708 4.7099 4.5294 4.3872 3.778 3.9181 4 4.3215 3.2662 4.47 3.4661 4.0612 4 4.1214 4 3.3601 3 4.0824 4.0511 4.056 4.2428 4.2232 3.5509 3.2485 4.3132 6.043 6.0025 5.8646 5.5771 5.506 5.8008 6.0247 12.4756 6.1095 6.2458 6.2284 6.2427 6.1538 6.378 6.5062 6 6 6.3522 7.1113 7.3034 7.5948 8 7.976 8.6115 7.4 7.5718 8.0739 8 8 8.0632 8.1695 8.4143 8.1302 8 8 8.3403 8.2999 7.852 7.2075 7 6.9433 -999
